ncols        633
nrows        32
xllcorner    4877000
yllcorner    5486000
cellsize     1000
NODATA_value -9999
378 405 428 370 417 399 394 378 337 329 297 197 186 247 249 261 240 234 309 287 309 265 265 281 302 382 315 292 273 277 290 299 327 271 257 338 307 367 373 439 493 468 430 397 372 385 385 371 476 362 426 353 365 345 365 394 351 392 421 447 487 530 405 413 370 352 333 321 319 375 300 281 261 297 291 277 244 234 250 209 383 392 351 472 328 313 350 416 279 191 269 326 411 372 310 409 353 408 413 337 345 262 287 340 315 323 258 272 278 280 275 277 278 259 264 262 269 260 235 271 259 285 299 298 279 291 291 308 247 202 158 159 130 146 144 135 131 123 121 114 104 97 92 89 89 93 89 89 90 89 90 92 93 93 94 95 95 99 95 97 98 95 98 96 145 299 320 333 325 301 239 208 184 212 272 490 522 429 476 431 486 417 411 314 385 343 408 368 328 222 333 393 380 397 529 517 498 380 465 405 418 401 458 299 169 151 298 400 436 446 442 450 381 397 348 301 215 372 375 337 303 304 409 400 383 362 376 340 358 383 363 334 279 291 312 181 184 177 243 317 310 358 363 345 345 322 314 315 339 312 337 339 294 310 319 313 320 313 306 303 300 292 297 244 195 264 255 286 255 288 263 193 185 203 213 220 224 238 236 253 272 260 275 300 360 390 362 336 328 403 358 351 340 332 339 359 375 451 427 395 382 382 388 383 363 377 344 345 331 364 343 309 300 327 312 322 324 301 317 321 311 280 318 287 287 288 276 262 261 261 266 277 336 358 368 324 321 322 256 264 345 356 327 323 274 318 312 437 519 488 451 319 356 488 524 503 526 515 551 514 505 521 505 465 467 447 458 464 444 436 483 491 463 452 432 451 509 492 446 508 516 561 567 558 543 520 498 449 439 449 433 453 520 485 442 444 424 416 414 415 414 438 435 419 423 469 509 495 485 480 485 485 458 443 475 515 532 507 478 435 413 414 472 496 539 522 538 537 593 655 642 676 693 746 785 824 805 750 753 795 -9999 -9999 -9999 -9999 -9999 -9999 -9999 -9999 -9999 -9999 -9999 -9999 -9999 -9999 -9999 -9999 -9999 -9999 -9999 -9999 -9999 -9999 -9999 -9999 -9999 -9999 -9999 -9999 -9999 -9999 -9999 -9999 -9999 -9999 -9999 -9999 -9999 -9999 -9999 -9999 -9999 -9999 -9999 -9999 -9999 -9999 -9999 -9999 -9999 -9999 -9999 -9999 -9999 -9999 -9999 -9999 -9999 -9999 -9999 -9999 -9999 -9999 -9999 -9999 -9999 -9999 -9999 -9999 -9999 -9999 -9999 -9999 -9999 -9999 -9999 -9999 -9999 -9999 -9999 -9999 -9999 -9999 -9999 -9999 -9999 -9999 -9999 -9999 -9999 -9999 -9999 -9999 -9999 -9999 -9999 -9999 -9999 -9999 -9999 -9999 -9999 -9999 -9999 -9999 -9999 -9999 -9999 -9999 -9999 -9999 -9999 -9999 -9999 -9999 -9999 -9999 -9999 -9999 -9999 -9999 -9999 -9999 -9999 -9999 -9999 -9999 -9999 -9999 -9999 -9999 -9999 -9999 -9999 -9999 -9999 -9999 -9999 -9999 -9999 -9999 -9999 -9999 -9999 -9999 -9999 -9999 -9999 -9999 -9999 -9999 -9999 -9999 -9999 -9999 -9999 -9999 -9999 -9999 -9999 -9999 -9999 -9999 -9999 -9999 -9999 -9999 -9999 -9999 -9999 -9999 -9999 -9999 -9999 -9999 -9999 -9999 -9999 -9999 -9999 -9999 -9999 -9999 -9999 -9999 -9999 -9999 -9999 -9999 -9999 -9999 -9999 -9999 -9999
-9999 -9999 -9999 403 397 394 403 340 319 223 233 285 318 171 170 226 257 309 274 276 246 225 237 255 287 374 308 306 312 346 261 278 264 303 250 383 363 323 421 376 393 438 465 382 380 362 400 389 371 327 338 353 350 322 345 326 385 428 446 430 476 479 391 345 413 391 369 371 406 355 361 278 323 267 289 285 226 227 285 352 223 238 276 306 391 445 367 338 306 254 307 336 338 351 301 337 408 454 341 295 305 318 286 374 314 288 256 262 242 258 338 364 324 278 248 291 326 310 311 327 255 246 220 227 193 222 277 277 158 139 135 134 150 153 147 134 130 125 119 118 111 94 92 93 90 90 90 91 88 90 92 92 93 94 95 95 95 97 96 96 95 95 96 97 102 192 279 369 265 250 234 174 211 239 327 446 511 399 447 416 466 459 370 383 369 276 432 349 311 262 368 379 495 506 486 517 475 464 302 358 386 382 232 215 361 155 175 172 211 281 449 444 379 365 327 314 359 375 397 397 398 349 402 363 381 374 385 393 405 384 358 355 319 356 342 216 167 226 238 294 344 342 311 333 314 307 313 316 340 314 288 326 289 301 300 318 317 308 297 291 288 257 250 213 193 203 269 268 274 265 279 250 181 225 234 240 235 255 262 270 258 283 285 295 294 304 344 352 323 341 385 359 378 351 316 364 378 410 406 428 390 374 339 334 330 334 325 331 326 310 322 318 311 293 280 285 309 306 308 282 278 282 274 271 285 264 265 264 273 265 284 324 340 324 320 369 323 275 258 265 285 319 283 271 285 442 317 427 498 509 486 458 379 397 501 543 552 543 544 540 540 545 527 485 486 467 451 426 450 455 458 472 444 434 412 462 499 463 458 529 561 567 551 532 531 522 495 476 452 465 445 431 487 491 438 487 459 430 417 411 412 428 434 424 415 509 518 486 498 464 488 455 448 437 453 457 510 454 465 449 467 448 464 485 522 501 537 541 575 575 656 764 713 672 768 848 802 766 -9999 -9999 -9999 -9999 -9999 -9999 -9999 -9999 -9999 -9999 -9999 -9999 -9999 -9999 -9999 -9999 -9999 -9999 -9999 -9999 -9999 -9999 -9999 -9999 -9999 -9999 -9999 -9999 -9999 -9999 -9999 -9999 -9999 -9999 -9999 -9999 -9999 -9999 -9999 -9999 -9999 -9999 -9999 -9999 -9999 -9999 -9999 -9999 -9999 -9999 -9999 -9999 -9999 -9999 -9999 -9999 -9999 -9999 -9999 -9999 -9999 -9999 -9999 -9999 -9999 -9999 -9999 -9999 -9999 -9999 -9999 -9999 -9999 -9999 -9999 -9999 -9999 -9999 -9999 -9999 -9999 -9999 -9999 -9999 -9999 -9999 -9999 -9999 -9999 -9999 -9999 -9999 -9999 -9999 -9999 -9999 -9999 -9999 -9999 -9999 -9999 -9999 -9999 -9999 -9999 -9999 -9999 -9999 -9999 -9999 -9999 -9999 -9999 -9999 -9999 -9999 -9999 -9999 -9999 -9999 -9999 -9999 -9999 -9999 -9999 -9999 -9999 -9999 -9999 -9999 -9999 -9999 -9999 -9999 -9999 -9999 -9999 -9999 -9999 -9999 -9999 -9999 -9999 -9999 -9999 -9999 -9999 -9999 -9999 -9999 -9999 -9999 -9999 -9999 -9999 -9999 -9999 -9999 -9999 -9999 -9999 -9999 -9999 -9999 -9999 -9999 -9999 -9999 -9999 -9999 -9999 -9999 -9999 -9999 -9999 -9999 -9999 -9999 -9999 -9999 -9999 -9999 -9999 -9999 -9999 -9999 -9999 -9999 -9999 -9999 -9999 -9999 -9999 -9999 -9999
-9999 -9999 -9999 -9999 -9999 391 412 393 316 293 272 252 260 198 169 179 203 237 301 216 215 207 215 322 320 361 354 371 317 308 284 253 262 244 353 284 321 383 331 361 420 363 366 365 382 371 410 380 328 345 313 298 316 343 305 305 316 366 413 373 451 455 350 350 366 384 428 454 386 345 342 305 333 312 313 290 314 258 421 442 387 271 305 294 344 401 366 382 380 322 211 220 265 342 325 312 306 341 319 320 335 335 340 312 279 260 244 272 253 278 301 361 298 294 319 317 370 337 278 256 230 208 213 197 179 178 157 159 200 169 154 154 161 162 138 128 119 114 111 104 93 93 93 90 88 89 90 86 89 89 89 91 94 94 95 96 96 97 96 97 96 96 96 96 97 273 357 305 221 179 195 167 194 271 312 492 500 409 392 398 526 473 372 316 353 325 327 392 328 267 369 425 535 497 460 517 518 503 350 286 287 425 339 414 240 360 421 168 405 194 451 449 356 367 320 400 408 357 405 404 414 274 413 380 381 381 393 414 405 376 371 366 348 364 315 227 171 192 320 330 345 332 307 296 290 304 308 293 350 350 318 309 283 322 314 315 301 302 299 295 292 270 280 268 279 184 184 214 185 203 256 198 183 243 267 251 263 283 268 234 244 260 264 295 299 307 324 325 328 325 404 344 342 322 342 329 428 404 370 384 377 408 361 361 341 356 356 345 340 315 310 314 287 315 332 291 276 272 270 269 267 267 266 266 265 266 268 273 284 297 303 324 327 313 297 293 310 283 258 263 264 269 270 271 319 373 400 372 498 521 498 464 448 428 547 519 550 539 517 506 528 516 534 521 484 473 433 422 422 434 461 467 454 445 424 432 443 446 437 488 525 557 517 550 531 532 506 494 476 533 456 445 430 426 440 423 498 471 441 418 417 457 435 426 417 420 474 454 477 457 462 477 463 437 434 434 493 468 431 431 463 468 484 482 470 524 515 549 535 571 634 605 617 663 730 828 827 779 -9999 -9999 -9999 -9999 -9999 -9999 -9999 -9999 -9999 -9999 -9999 -9999 -9999 -9999 -9999 -9999 -9999 -9999 -9999 -9999 -9999 -9999 -9999 -9999 -9999 -9999 -9999 -9999 -9999 -9999 -9999 -9999 -9999 -9999 -9999 -9999 -9999 -9999 -9999 -9999 -9999 -9999 -9999 -9999 -9999 -9999 -9999 -9999 -9999 -9999 -9999 -9999 -9999 -9999 -9999 -9999 -9999 -9999 -9999 -9999 -9999 -9999 -9999 -9999 -9999 -9999 -9999 -9999 -9999 -9999 -9999 -9999 -9999 -9999 -9999 -9999 -9999 -9999 -9999 -9999 -9999 -9999 -9999 -9999 -9999 -9999 -9999 -9999 -9999 -9999 -9999 -9999 -9999 -9999 -9999 -9999 -9999 -9999 -9999 -9999 -9999 -9999 -9999 -9999 -9999 -9999 -9999 -9999 -9999 -9999 -9999 -9999 -9999 -9999 -9999 -9999 -9999 -9999 -9999 -9999 -9999 -9999 -9999 -9999 -9999 -9999 -9999 -9999 -9999 -9999 -9999 -9999 -9999 -9999 -9999 -9999 -9999 -9999 -9999 -9999 -9999 -9999 -9999 -9999 -9999 -9999 -9999 -9999 -9999 -9999 -9999 -9999 -9999 -9999 -9999 -9999 -9999 -9999 -9999 -9999 -9999 -9999 -9999 -9999 -9999 -9999 -9999 -9999 -9999 -9999 -9999 -9999 -9999 -9999 -9999 -9999 -9999 -9999 -9999 -9999 -9999 -9999 -9999 -9999 -9999 -9999 -9999 -9999 -9999 -9999 -9999 -9999 -9999 -9999 -9999
-9999 -9999 -9999 -9999 -9999 389 401 378 278 287 309 256 190 194 169 170 217 233 273 246 208 243 291 291 334 263 363 364 330 306 301 308 372 304 239 313 346 279 313 359 453 382 345 323 381 439 446 379 371 369 333 299 315 330 338 312 340 414 390 444 368 423 404 347 336 368 421 370 378 336 332 331 298 365 309 254 212 386 489 460 326 287 386 375 401 387 378 428 397 251 337 279 232 275 306 287 330 345 331 392 347 342 327 290 272 278 325 296 264 310 371 339 347 320 328 325 379 361 341 295 294 212 179 171 192 245 269 278 182 158 155 147 150 149 121 108 108 113 103 96 93 93 94 90 89 88 91 89 89 90 91 90 94 95 96 96 96 96 96 96 96 96 97 97 102 197 247 244 215 196 164 190 221 237 353 540 448 435 380 395 493 426 421 389 361 425 385 265 336 359 401 536 547 507 398 506 515 510 332 306 346 309 220 196 170 440 321 233 413 424 207 393 347 373 418 385 422 393 380 420 423 249 397 374 363 404 371 386 385 373 317 352 340 327 326 218 182 183 234 323 317 315 311 290 305 261 294 334 364 332 308 277 317 287 304 308 291 289 299 302 297 280 285 277 256 261 207 193 218 246 220 244 207 232 274 235 259 235 258 258 279 298 262 292 303 316 304 319 315 312 348 338 335 340 307 335 387 396 393 379 355 366 363 390 371 371 343 333 313 325 314 325 334 319 307 287 285 271 284 275 281 294 278 270 268 271 274 293 304 302 316 306 293 306 304 305 291 276 259 263 265 268 272 279 317 349 343 390 492 509 545 499 483 443 462 541 572 507 523 486 499 547 553 533 513 484 454 448 445 438 460 459 441 450 430 433 460 418 462 500 519 534 485 550 524 511 506 494 473 488 491 440 427 458 433 438 421 413 473 443 431 458 442 426 415 411 415 420 430 451 446 507 486 455 422 420 424 494 446 426 446 456 445 444 490 498 498 526 528 548 598 650 680 688 714 802 835 774 673 -9999 -9999 -9999 -9999 -9999 -9999 -9999 -9999 -9999 -9999 -9999 -9999 -9999 -9999 -9999 -9999 -9999 -9999 -9999 -9999 -9999 -9999 -9999 -9999 -9999 -9999 -9999 -9999 -9999 -9999 -9999 -9999 -9999 -9999 -9999 -9999 -9999 -9999 -9999 -9999 -9999 -9999 -9999 -9999 -9999 -9999 -9999 -9999 -9999 -9999 -9999 -9999 -9999 -9999 -9999 -9999 -9999 -9999 -9999 -9999 -9999 -9999 -9999 -9999 -9999 -9999 -9999 -9999 -9999 -9999 -9999 -9999 -9999 -9999 -9999 -9999 -9999 -9999 -9999 -9999 -9999 -9999 -9999 -9999 -9999 -9999 -9999 -9999 -9999 -9999 -9999 -9999 -9999 -9999 -9999 -9999 -9999 -9999 -9999 -9999 -9999 -9999 -9999 -9999 -9999 -9999 -9999 -9999 -9999 -9999 -9999 -9999 -9999 -9999 -9999 -9999 -9999 -9999 -9999 -9999 -9999 -9999 -9999 -9999 -9999 -9999 -9999 -9999 -9999 -9999 -9999 -9999 -9999 -9999 -9999 -9999 -9999 -9999 -9999 -9999 -9999 -9999 -9999 -9999 -9999 -9999 -9999 -9999 -9999 -9999 -9999 -9999 -9999 -9999 -9999 -9999 -9999 -9999 -9999 -9999 -9999 -9999 -9999 -9999 -9999 -9999 -9999 -9999 -9999 -9999 -9999 -9999 -9999 -9999 -9999 -9999 -9999 -9999 -9999 -9999 -9999 -9999 -9999 -9999 -9999 -9999 -9999 -9999 -9999 -9999 -9999 -9999 -9999 -9999
-9999 -9999 -9999 -9999 -9999 -9999 -9999 385 301 284 282 227 294 216 182 170 172 222 295 231 288 376 395 305 309 236 356 369 286 273 278 279 298 230 287 325 275 325 344 390 388 394 370 339 377 444 386 324 311 364 321 300 292 286 309 302 368 339 406 359 323 354 388 329 406 377 423 408 363 363 379 370 327 349 295 271 205 355 384 364 297 351 386 379 399 369 376 376 371 404 383 310 267 231 275 303 326 359 360 364 388 337 371 368 293 282 326 288 313 361 339 338 340 292 291 264 283 268 224 200 194 202 214 210 216 294 320 241 183 167 155 157 165 136 104 101 99 98 96 93 94 94 94 89 89 90 90 89 90 90 90 90 90 95 96 97 96 96 97 97 96 97 97 97 101 246 309 182 212 170 240 226 246 324 336 521 469 409 362 427 442 446 475 422 459 477 421 396 357 298 340 528 433 496 424 501 505 366 347 317 220 226 261 289 289 442 305 220 452 465 260 376 300 414 431 420 410 420 422 424 409 393 365 360 373 373 369 361 397 371 359 310 319 334 307 336 215 172 235 270 297 311 300 302 290 327 344 351 350 327 285 259 283 271 285 289 298 300 296 299 298 292 284 221 261 300 262 257 251 267 268 281 265 250 195 203 261 257 258 273 282 296 297 299 312 316 316 329 319 318 316 331 339 330 320 306 354 370 403 382 341 362 343 371 352 330 335 333 343 325 318 326 296 314 282 274 272 294 277 286 286 288 283 286 290 298 310 327 341 329 319 303 301 287 292 277 272 261 260 268 286 309 300 310 329 352 351 422 507 544 517 465 437 401 429 472 519 514 507 439 490 492 543 536 517 497 475 461 469 469 473 465 445 440 422 421 423 409 425 429 460 455 480 498 535 523 507 490 459 486 462 459 437 457 433 447 436 426 418 416 409 428 413 425 411 408 416 422 430 441 465 447 468 447 431 415 415 411 408 474 474 447 455 482 515 513 475 513 512 541 575 575 640 689 684 763 786 706 669 -9999 -9999 -9999 -9999 -9999 -9999 -9999 -9999 -9999 -9999 -9999 -9999 -9999 -9999 -9999 -9999 -9999 -9999 -9999 -9999 -9999 -9999 -9999 -9999 -9999 -9999 -9999 -9999 -9999 -9999 -9999 -9999 -9999 -9999 -9999 -9999 -9999 -9999 -9999 -9999 -9999 -9999 -9999 -9999 -9999 -9999 -9999 -9999 -9999 -9999 -9999 -9999 -9999 -9999 -9999 -9999 -9999 -9999 -9999 -9999 -9999 -9999 -9999 -9999 -9999 -9999 -9999 -9999 -9999 -9999 -9999 -9999 -9999 -9999 -9999 -9999 -9999 -9999 -9999 -9999 -9999 -9999 -9999 -9999 -9999 -9999 -9999 -9999 -9999 -9999 -9999 -9999 -9999 -9999 -9999 -9999 -9999 -9999 -9999 -9999 -9999 -9999 -9999 -9999 -9999 -9999 -9999 -9999 -9999 -9999 -9999 -9999 -9999 -9999 -9999 -9999 -9999 -9999 -9999 -9999 -9999 -9999 -9999 -9999 -9999 -9999 -9999 -9999 -9999 -9999 -9999 -9999 -9999 -9999 -9999 -9999 -9999 -9999 -9999 -9999 -9999 -9999 -9999 -9999 -9999 -9999 -9999 -9999 -9999 -9999 -9999 -9999 -9999 -9999 -9999 -9999 -9999 -9999 -9999 -9999 -9999 -9999 -9999 -9999 -9999 -9999 -9999 -9999 -9999 -9999 -9999 -9999 -9999 -9999 -9999 -9999 -9999 -9999 -9999 -9999 -9999 -9999 -9999 -9999 -9999 -9999 -9999 -9999 -9999 -9999 -9999 -9999 -9999 -9999
-9999 -9999 -9999 -9999 -9999 -9999 -9999 -9999 365 378 356 367 378 262 192 171 171 175 203 287 372 381 408 325 215 268 252 246 271 288 268 271 272 350 383 365 341 371 403 373 379 360 341 279 330 333 374 351 337 349 334 331 311 286 300 306 299 363 456 422 355 321 312 348 425 444 373 300 370 382 348 341 343 342 261 289 206 266 270 305 348 295 320 297 371 335 339 344 380 414 311 311 266 233 225 261 308 339 343 335 352 349 358 364 327 284 333 350 257 327 311 320 357 320 310 266 255 212 202 216 285 218 220 249 267 330 285 200 185 169 152 187 148 110 104 101 99 99 95 98 94 93 92 91 88 90 90 89 91 93 94 95 96 96 96 97 97 97 97 101 96 97 99 100 100 244 276 198 194 177 215 202 281 323 379 461 436 389 364 485 500 433 464 388 438 411 441 414 303 391 358 445 498 512 357 493 480 521 371 452 257 301 434 269 365 457 452 200 427 463 267 382 362 277 432 437 418 440 432 412 392 340 251 324 292 317 339 327 361 369 328 282 284 267 284 321 282 177 233 257 313 295 300 243 328 347 321 310 345 307 310 251 295 289 302 308 299 298 300 298 291 260 282 262 275 308 280 262 253 300 292 260 290 268 264 254 262 275 273 261 281 296 310 310 288 309 318 326 311 326 324 308 313 328 325 305 344 340 376 381 349 346 317 311 355 357 341 336 314 312 327 302 283 283 274 275 281 292 285 305 306 313 301 308 318 308 321 336 328 314 331 327 326 303 348 316 272 262 265 277 336 350 347 321 302 345 366 373 520 511 542 466 448 412 392 504 467 452 429 459 514 528 531 535 520 501 490 474 450 440 443 436 427 449 403 408 429 425 441 426 435 492 560 539 526 546 507 481 466 450 468 455 444 426 434 422 432 430 420 415 413 412 404 422 408 411 414 418 436 446 465 444 456 425 416 408 420 410 414 405 472 519 443 444 490 524 532 511 550 570 575 618 592 660 664 705 708 683 627 646 -9999 -9999 -9999 -9999 -9999 -9999 -9999 -9999 -9999 -9999 -9999 -9999 -9999 -9999 -9999 -9999 -9999 -9999 -9999 -9999 -9999 -9999 -9999 -9999 -9999 -9999 -9999 -9999 -9999 -9999 -9999 -9999 -9999 -9999 -9999 -9999 -9999 -9999 -9999 -9999 -9999 -9999 -9999 -9999 -9999 -9999 -9999 -9999 -9999 -9999 -9999 -9999 -9999 -9999 -9999 -9999 -9999 -9999 -9999 -9999 -9999 -9999 -9999 -9999 -9999 -9999 -9999 -9999 -9999 -9999 -9999 -9999 -9999 -9999 -9999 -9999 -9999 -9999 -9999 -9999 -9999 -9999 -9999 -9999 -9999 -9999 -9999 -9999 -9999 -9999 -9999 -9999 -9999 -9999 -9999 -9999 -9999 -9999 -9999 -9999 -9999 -9999 -9999 -9999 -9999 -9999 -9999 -9999 -9999 -9999 -9999 -9999 -9999 -9999 -9999 -9999 -9999 -9999 -9999 -9999 -9999 -9999 -9999 -9999 -9999 -9999 -9999 -9999 -9999 -9999 -9999 -9999 -9999 -9999 -9999 -9999 -9999 -9999 -9999 -9999 -9999 -9999 -9999 -9999 -9999 -9999 -9999 -9999 -9999 -9999 -9999 -9999 -9999 -9999 -9999 -9999 -9999 -9999 -9999 -9999 -9999 -9999 -9999 -9999 -9999 -9999 -9999 -9999 -9999 -9999 -9999 -9999 -9999 -9999 -9999 -9999 -9999 -9999 -9999 -9999 -9999 -9999 -9999 -9999 -9999 -9999 -9999 -9999 -9999 -9999 -9999 -9999 -9999
-9999 -9999 -9999 -9999 -9999 -9999 -9999 -9999 -9999 -9999 336 341 364 289 269 205 174 279 214 260 332 389 406 324 218 238 235 281 250 289 313 263 232 269 286 293 298 398 391 396 288 310 280 272 290 333 349 337 317 387 349 329 333 301 302 275 290 419 422 400 417 373 310 362 387 434 349 375 306 353 362 348 374 357 269 235 219 227 282 387 325 343 321 300 329 311 288 261 255 400 326 260 278 249 227 253 269 336 307 333 332 331 322 309 313 288 324 317 272 288 281 307 360 318 288 287 310 299 273 271 273 259 272 296 286 254 318 192 174 160 150 145 140 112 134 127 107 101 101 94 94 94 94 90 89 90 92 90 96 96 94 95 96 97 97 97 98 97 97 98 97 97 101 102 103 181 210 190 180 180 235 264 285 291 338 461 357 394 356 487 458 425 433 435 418 418 420 355 314 366 474 486 446 399 342 497 350 357 420 361 252 344 484 379 280 466 451 221 453 441 414 305 401 423 377 428 438 420 403 382 347 347 315 277 292 364 399 374 370 295 313 241 341 345 258 309 200 187 227 249 294 274 302 306 294 341 284 333 316 291 270 265 285 295 278 294 300 292 284 280 280 276 260 277 278 301 316 297 276 297 282 288 286 277 255 240 268 258 247 278 283 308 310 308 330 338 335 319 326 329 309 305 304 301 308 303 331 314 373 367 357 379 363 327 348 337 369 358 346 323 310 325 317 274 275 279 290 284 303 306 309 300 293 291 290 302 297 308 309 321 335 330 303 314 301 284 261 261 269 282 326 350 342 314 319 337 344 417 421 513 523 475 480 464 408 460 502 474 517 465 517 571 576 561 510 487 489 486 467 446 448 450 439 418 419 398 422 446 440 441 443 529 498 531 538 520 504 478 446 440 468 497 449 424 424 425 426 421 432 428 424 425 418 404 405 409 411 422 428 438 465 436 423 446 415 407 403 404 407 397 495 505 505 489 479 507 520 520 530 575 618 642 651 635 612 615 664 669 641 669 687 -9999 -9999 -9999 -9999 -9999 -9999 -9999 -9999 -9999 -9999 -9999 -9999 -9999 -9999 -9999 -9999 -9999 -9999 -9999 -9999 -9999 -9999 -9999 -9999 -9999 -9999 -9999 -9999 -9999 -9999 -9999 -9999 -9999 -9999 -9999 -9999 -9999 -9999 -9999 -9999 -9999 -9999 -9999 -9999 -9999 -9999 -9999 -9999 -9999 -9999 -9999 -9999 -9999 -9999 -9999 -9999 -9999 -9999 -9999 -9999 -9999 -9999 -9999 -9999 -9999 -9999 -9999 -9999 -9999 -9999 -9999 -9999 -9999 -9999 -9999 -9999 -9999 -9999 -9999 -9999 -9999 -9999 -9999 -9999 -9999 -9999 -9999 -9999 -9999 -9999 -9999 -9999 -9999 -9999 -9999 -9999 -9999 -9999 -9999 -9999 -9999 -9999 -9999 -9999 -9999 -9999 -9999 -9999 -9999 -9999 -9999 -9999 -9999 -9999 -9999 -9999 -9999 -9999 -9999 -9999 -9999 -9999 -9999 -9999 -9999 -9999 -9999 -9999 -9999 -9999 -9999 -9999 -9999 -9999 -9999 -9999 -9999 -9999 -9999 -9999 -9999 -9999 -9999 -9999 -9999 -9999 -9999 -9999 -9999 -9999 -9999 -9999 -9999 -9999 -9999 -9999 -9999 -9999 -9999 -9999 -9999 -9999 -9999 -9999 -9999 -9999 -9999 -9999 -9999 -9999 -9999 -9999 -9999 -9999 -9999 -9999 -9999 -9999 -9999 -9999 -9999 -9999 -9999 -9999 -9999 -9999 -9999 -9999 -9999 -9999 -9999 -9999
-9999 -9999 -9999 -9999 -9999 -9999 -9999 -9999 -9999 -9999 344 320 319 340 256 206 175 322 361 365 376 384 334 274 244 253 263 293 277 334 299 257 222 268 285 313 302 326 314 313 275 247 322 309 356 345 301 311 356 378 370 320 299 297 295 274 300 328 402 323 329 348 368 420 453 438 403 335 288 400 382 347 309 247 274 211 256 385 403 329 303 353 344 304 296 269 257 259 237 244 251 241 272 264 212 235 284 295 306 260 327 315 317 338 295 291 320 320 267 328 332 315 356 343 335 331 280 325 331 345 325 301 319 303 308 347 319 200 183 178 169 159 133 127 121 116 107 103 101 94 94 95 93 90 90 90 92 91 90 94 95 95 96 97 97 98 98 98 98 98 97 103 99 103 106 108 215 160 179 278 282 303 386 400 356 442 391 377 384 441 472 400 384 398 368 373 449 407 357 455 498 392 362 334 316 481 487 490 291 321 351 487 478 438 264 470 458 234 444 422 378 277 425 421 422 383 428 408 411 417 380 388 392 301 358 340 372 382 382 374 364 309 361 314 300 197 241 278 179 231 286 311 220 229 313 321 299 303 273 264 254 277 275 279 275 287 292 275 284 284 282 279 258 275 275 315 321 325 313 312 320 288 281 291 280 250 282 281 263 283 333 339 314 338 343 336 332 332 338 331 316 318 318 307 305 305 299 314 329 375 355 367 358 354 299 340 362 344 323 338 320 308 284 276 279 295 302 312 319 319 318 301 295 292 290 291 299 292 292 296 328 334 322 312 277 266 263 266 272 281 287 302 328 364 369 366 372 456 520 516 523 510 527 489 465 457 469 497 502 487 511 535 511 503 515 464 464 463 457 463 453 459 443 427 428 437 435 422 440 425 454 496 547 573 535 495 472 451 445 456 475 498 463 435 424 430 432 431 426 431 421 416 411 402 407 421 414 413 419 415 436 458 425 438 416 411 403 401 402 396 397 435 550 532 508 544 554 548 530 552 617 598 658 604 573 593 605 592 614 655 656 699 -9999 -9999 -9999 -9999 -9999 -9999 -9999 -9999 -9999 -9999 -9999 -9999 -9999 -9999 -9999 -9999 -9999 -9999 -9999 -9999 -9999 -9999 -9999 -9999 -9999 -9999 -9999 -9999 -9999 -9999 -9999 -9999 -9999 -9999 -9999 -9999 -9999 -9999 -9999 -9999 -9999 -9999 -9999 -9999 -9999 -9999 -9999 -9999 -9999 -9999 -9999 -9999 -9999 -9999 -9999 -9999 -9999 -9999 -9999 -9999 -9999 -9999 -9999 -9999 -9999 -9999 -9999 -9999 -9999 -9999 -9999 -9999 -9999 -9999 -9999 -9999 -9999 -9999 -9999 -9999 -9999 -9999 -9999 -9999 -9999 -9999 -9999 -9999 -9999 -9999 -9999 -9999 -9999 -9999 -9999 -9999 -9999 -9999 -9999 -9999 -9999 -9999 -9999 -9999 -9999 -9999 -9999 -9999 -9999 -9999 -9999 -9999 -9999 -9999 -9999 -9999 -9999 -9999 -9999 -9999 -9999 -9999 -9999 -9999 -9999 -9999 -9999 -9999 -9999 -9999 -9999 -9999 -9999 -9999 -9999 -9999 -9999 -9999 -9999 -9999 -9999 -9999 -9999 -9999 -9999 -9999 -9999 -9999 -9999 -9999 -9999 -9999 -9999 -9999 -9999 -9999 -9999 -9999 -9999 -9999 -9999 -9999 -9999 -9999 -9999 -9999 -9999 -9999 -9999 -9999 -9999 -9999 -9999 -9999 -9999 -9999 -9999 -9999 -9999 -9999 -9999 -9999 -9999 -9999 -9999 -9999 -9999 -9999 -9999 -9999 -9999
-9999 -9999 -9999 -9999 -9999 -9999 -9999 -9999 -9999 306 318 327 325 233 240 238 170 230 315 279 374 371 260 199 234 234 249 255 306 250 270 234 217 269 291 308 251 283 272 288 246 321 285 358 352 293 285 303 377 402 367 315 279 271 269 321 320 416 367 391 356 316 379 381 422 391 297 274 276 318 316 338 296 298 221 221 311 382 320 314 272 281 264 324 334 298 276 257 261 237 233 260 292 244 233 216 267 270 275 240 273 324 343 339 318 308 306 279 282 294 320 312 323 331 313 322 309 322 319 326 293 280 290 225 384 278 340 213 197 184 159 145 134 138 134 120 105 102 94 95 94 95 91 89 91 87 91 88 88 94 95 96 96 97 97 97 98 99 99 98 98 97 99 101 112 121 318 267 215 356 378 484 516 478 386 468 393 358 370 412 476 331 449 384 279 421 444 426 439 529 477 517 459 366 313 465 549 374 351 312 386 487 496 452 321 469 459 274 235 411 413 402 315 429 435 428 406 396 411 408 413 414 417 350 318 333 384 400 338 305 340 263 345 301 277 308 300 319 253 207 280 296 203 289 207 294 238 283 233 284 256 251 255 258 268 270 302 307 303 306 304 286 272 263 275 321 319 310 323 326 329 299 282 295 298 265 300 254 287 397 376 335 386 382 370 378 364 371 370 378 362 343 332 325 327 329 309 300 307 323 310 355 374 354 301 318 351 353 319 309 306 289 277 279 283 289 303 333 343 325 314 308 306 310 303 287 286 284 290 288 297 305 305 303 300 264 267 272 281 300 316 321 342 443 545 529 454 389 372 456 462 489 475 506 479 455 481 510 537 500 513 561 562 501 524 495 482 467 468 466 443 468 437 452 429 391 433 423 420 454 459 475 469 518 472 451 437 434 422 426 450 460 470 435 438 437 440 436 439 435 427 421 412 406 399 407 410 411 408 415 417 441 418 411 405 404 418 406 398 393 407 492 563 561 549 588 554 539 519 566 587 606 631 609 551 662 706 644 639 648 658 659 627 561 -9999 -9999 -9999 -9999 -9999 -9999 -9999 -9999 -9999 -9999 -9999 -9999 -9999 -9999 -9999 -9999 -9999 -9999 -9999 -9999 -9999 -9999 -9999 -9999 -9999 -9999 -9999 -9999 -9999 -9999 -9999 -9999 -9999 -9999 -9999 -9999 -9999 -9999 -9999 -9999 -9999 -9999 -9999 -9999 -9999 -9999 -9999 -9999 -9999 -9999 -9999 -9999 -9999 -9999 -9999 -9999 -9999 -9999 -9999 -9999 -9999 -9999 -9999 -9999 -9999 -9999 -9999 -9999 -9999 -9999 -9999 -9999 -9999 -9999 -9999 -9999 -9999 -9999 -9999 -9999 -9999 -9999 -9999 -9999 -9999 -9999 -9999 -9999 -9999 -9999 -9999 -9999 -9999 -9999 -9999 -9999 -9999 -9999 -9999 -9999 -9999 -9999 -9999 -9999 -9999 -9999 -9999 -9999 -9999 -9999 -9999 -9999 -9999 -9999 -9999 -9999 -9999 -9999 -9999 -9999 -9999 -9999 -9999 -9999 -9999 -9999 -9999 -9999 -9999 -9999 -9999 -9999 -9999 -9999 -9999 -9999 -9999 -9999 -9999 -9999 -9999 -9999 -9999 -9999 -9999 -9999 -9999 -9999 -9999 -9999 -9999 -9999 -9999 -9999 -9999 -9999 -9999 -9999 -9999 -9999 -9999 -9999 -9999 -9999 -9999 -9999 -9999 -9999 -9999 -9999 -9999 -9999 -9999 -9999 -9999 -9999 -9999 -9999 -9999 -9999 -9999 -9999 -9999 -9999 -9999 -9999 -9999 -9999 -9999
-9999 -9999 -9999 -9999 -9999 -9999 -9999 -9999 -9999 297 288 302 332 311 330 272 230 214 238 266 363 288 219 282 229 258 257 323 305 282 241 232 215 268 291 305 273 244 290 232 305 359 365 303 311 315 269 377 369 373 354 313 315 339 339 308 296 398 378 342 311 403 347 369 375 322 347 325 279 366 311 259 248 315 351 294 263 306 251 265 287 246 254 272 279 271 256 268 272 246 230 253 252 259 230 239 217 236 283 289 277 327 331 331 321 316 286 281 288 324 288 298 328 331 357 342 347 341 324 304 311 251 323 268 335 388 307 238 214 195 130 113 107 106 100 100 99 98 94 94 94 95 92 91 92 93 94 88 92 110 96 105 98 97 98 98 98 99 100 98 98 98 94 98 129 202 153 149 300 356 357 422 443 478 475 453 478 395 270 387 470 371 408 359 353 460 433 408 514 488 468 402 362 493 274 329 469 460 308 336 493 506 485 483 426 467 463 408 307 382 354 415 387 398 433 416 399 398 415 430 407 423 342 316 291 372 382 348 370 354 299 334 351 309 271 227 304 296 277 182 225 309 196 269 324 250 219 258 296 339 334 286 308 298 310 287 313 324 322 307 287 282 269 269 294 311 301 315 323 320 327 313 308 305 285 294 298 288 286 320 374 387 471 438 422 429 367 358 334 368 349 343 326 318 336 310 320 319 294 300 297 358 349 369 336 303 304 342 333 287 307 278 282 296 297 311 322 330 336 323 307 302 300 299 295 290 290 287 310 287 301 287 294 284 265 263 272 280 286 302 338 337 362 386 448 537 461 452 370 377 511 501 480 487 501 490 491 493 535 525 517 541 529 536 557 552 484 471 458 471 472 451 429 399 405 388 416 403 434 467 450 454 460 445 430 423 432 421 437 428 432 439 467 511 550 460 440 433 432 430 434 433 425 457 412 398 406 409 405 406 406 416 419 431 419 406 401 395 397 393 419 489 539 634 547 603 549 505 504 543 542 602 676 647 560 574 622 687 673 702 670 720 664 569 541 -9999 -9999 -9999 -9999 -9999 -9999 -9999 -9999 -9999 -9999 -9999 -9999 -9999 -9999 -9999 -9999 -9999 -9999 -9999 -9999 -9999 -9999 -9999 -9999 -9999 -9999 -9999 -9999 -9999 -9999 -9999 -9999 -9999 -9999 -9999 -9999 -9999 -9999 -9999 -9999 -9999 -9999 -9999 -9999 -9999 -9999 -9999 -9999 -9999 -9999 -9999 -9999 -9999 -9999 -9999 -9999 -9999 -9999 -9999 -9999 -9999 -9999 -9999 -9999 -9999 -9999 -9999 -9999 -9999 -9999 -9999 -9999 -9999 -9999 -9999 -9999 -9999 -9999 -9999 -9999 -9999 -9999 -9999 -9999 -9999 -9999 -9999 -9999 -9999 -9999 -9999 -9999 -9999 -9999 -9999 -9999 -9999 -9999 -9999 -9999 -9999 -9999 -9999 -9999 -9999 -9999 -9999 -9999 -9999 -9999 -9999 -9999 -9999 -9999 -9999 -9999 -9999 -9999 -9999 -9999 -9999 -9999 -9999 -9999 -9999 -9999 -9999 -9999 -9999 -9999 -9999 -9999 -9999 -9999 -9999 -9999 -9999 -9999 -9999 -9999 -9999 -9999 -9999 -9999 -9999 -9999 -9999 -9999 -9999 -9999 -9999 -9999 -9999 -9999 -9999 -9999 -9999 -9999 -9999 -9999 -9999 -9999 -9999 -9999 -9999 -9999 -9999 -9999 -9999 -9999 -9999 -9999 -9999 -9999 -9999 -9999 -9999 -9999 -9999 -9999 -9999 -9999 -9999 -9999 -9999 -9999 -9999 -9999
-9999 -9999 -9999 -9999 -9999 -9999 -9999 -9999 -9999 -9999 283 288 313 319 335 318 236 194 256 371 272 269 265 226 252 246 284 311 359 293 257 223 224 272 266 238 263 245 256 289 312 325 320 323 308 317 342 386 341 350 379 293 275 317 299 342 302 342 392 307 299 369 397 408 388 361 289 312 267 307 307 321 394 355 329 264 228 218 246 248 258 245 253 239 258 273 252 241 234 232 230 226 259 246 244 298 254 270 295 270 342 369 341 314 316 314 302 296 313 314 314 303 410 406 371 367 385 335 296 331 278 342 297 325 424 341 333 243 184 168 137 112 104 109 115 99 97 95 94 94 95 95 90 89 91 91 95 93 90 95 86 98 97 98 98 99 98 99 100 96 97 97 98 98 139 228 248 239 229 235 323 370 432 444 541 441 451 479 267 284 459 371 357 252 436 464 377 411 535 455 431 372 416 370 467 289 518 443 511 419 499 519 491 444 369 467 438 448 430 318 414 417 445 420 403 409 416 397 405 416 373 394 319 299 293 384 396 405 356 314 374 351 350 330 307 299 344 324 256 217 193 195 192 344 296 322 272 307 270 312 327 327 316 323 327 339 302 313 307 300 299 290 283 281 298 284 301 321 310 326 331 315 313 307 317 294 299 271 297 296 365 381 379 458 369 343 335 328 320 327 349 326 321 312 308 306 299 297 294 295 298 297 319 314 361 342 287 321 289 279 279 285 311 307 324 325 335 348 336 325 317 310 306 303 295 294 288 287 282 290 279 281 287 270 265 270 291 296 295 300 316 362 351 348 387 494 487 376 354 359 494 486 417 501 502 516 498 492 577 502 510 535 517 559 518 531 494 465 446 484 503 472 467 436 433 388 401 448 453 480 502 493 470 444 425 414 409 415 417 413 436 420 427 460 477 475 439 432 430 431 438 439 433 426 427 421 396 401 401 401 403 413 435 464 452 425 408 397 391 405 419 469 607 553 616 565 548 493 538 545 561 594 702 662 653 538 611 681 766 677 603 681 641 564 540 -9999 -9999 -9999 -9999 -9999 -9999 -9999 -9999 -9999 -9999 -9999 -9999 -9999 -9999 -9999 -9999 -9999 -9999 -9999 -9999 -9999 -9999 -9999 -9999 -9999 -9999 -9999 -9999 -9999 -9999 -9999 -9999 -9999 -9999 -9999 -9999 -9999 -9999 -9999 -9999 -9999 -9999 -9999 -9999 -9999 -9999 -9999 -9999 -9999 -9999 -9999 -9999 -9999 -9999 -9999 -9999 -9999 -9999 -9999 -9999 -9999 -9999 -9999 -9999 -9999 -9999 -9999 -9999 -9999 -9999 -9999 -9999 -9999 -9999 -9999 -9999 -9999 -9999 -9999 -9999 -9999 -9999 -9999 -9999 -9999 -9999 -9999 -9999 -9999 -9999 -9999 -9999 -9999 -9999 -9999 -9999 -9999 -9999 -9999 -9999 -9999 -9999 -9999 -9999 -9999 -9999 -9999 -9999 -9999 -9999 -9999 -9999 -9999 -9999 -9999 -9999 -9999 -9999 -9999 -9999 -9999 -9999 -9999 -9999 -9999 -9999 -9999 -9999 -9999 -9999 -9999 -9999 -9999 -9999 -9999 -9999 -9999 -9999 -9999 -9999 -9999 -9999 -9999 -9999 -9999 -9999 -9999 -9999 -9999 -9999 -9999 -9999 -9999 -9999 -9999 -9999 -9999 -9999 -9999 -9999 -9999 -9999 -9999 -9999 -9999 -9999 -9999 -9999 -9999 -9999 -9999 -9999 -9999 -9999 -9999 -9999 -9999 -9999 -9999 -9999 -9999 -9999 -9999 -9999 -9999 -9999 -9999 -9999
-9999 -9999 -9999 -9999 -9999 -9999 -9999 -9999 -9999 -9999 -9999 285 285 292 336 345 339 243 168 273 241 184 244 232 237 283 378 392 313 308 271 254 230 238 212 217 226 218 225 249 303 266 275 246 269 331 396 379 316 405 375 295 301 306 307 281 299 368 342 320 314 372 362 423 376 316 309 364 291 316 363 356 317 350 245 261 299 271 236 253 258 224 226 229 238 263 261 243 231 229 235 289 256 263 269 274 235 269 328 311 240 291 288 296 305 286 300 310 298 336 391 412 345 428 430 349 378 337 322 345 383 342 407 360 378 406 289 243 178 145 128 115 108 104 104 99 96 94 94 94 95 95 95 87 91 91 95 95 92 88 92 97 98 97 98 100 100 98 96 98 99 98 99 102 142 199 248 299 306 247 263 254 360 409 560 373 516 419 269 305 437 424 277 336 440 328 342 445 543 431 502 346 367 386 291 320 444 466 507 513 507 515 494 463 464 466 447 476 437 265 412 442 422 410 405 409 419 414 416 431 397 402 411 350 333 363 392 359 361 331 375 411 381 342 304 337 320 318 332 242 186 284 347 337 361 299 321 312 307 324 336 345 337 339 335 341 341 322 307 304 304 293 287 302 302 296 309 317 324 335 322 319 328 323 326 316 309 278 297 343 316 346 382 449 363 353 342 331 326 318 321 331 323 307 349 347 388 353 318 308 303 293 287 288 302 326 318 282 281 299 312 328 331 334 322 329 358 345 340 335 328 315 312 311 305 304 295 290 289 281 277 275 273 267 266 281 306 338 345 353 369 353 345 341 365 427 454 434 414 341 456 454 400 500 504 513 500 514 575 493 494 526 526 529 562 533 494 471 463 478 458 445 446 421 422 385 408 429 479 501 458 500 487 434 438 415 418 408 402 423 426 430 412 420 429 451 460 434 435 448 450 434 439 430 421 442 406 394 396 411 409 447 459 467 481 454 436 394 389 406 458 493 498 624 595 559 512 487 502 536 562 610 713 688 624 559 611 661 618 615 578 719 631 601 528 559 -9999 -9999 -9999 -9999 -9999 -9999 -9999 -9999 -9999 -9999 -9999 -9999 -9999 -9999 -9999 -9999 -9999 -9999 -9999 -9999 -9999 -9999 -9999 -9999 -9999 -9999 -9999 -9999 -9999 -9999 -9999 -9999 -9999 -9999 -9999 -9999 -9999 -9999 -9999 -9999 -9999 -9999 -9999 -9999 -9999 -9999 -9999 -9999 -9999 -9999 -9999 -9999 -9999 -9999 -9999 -9999 -9999 -9999 -9999 -9999 -9999 -9999 -9999 -9999 -9999 -9999 -9999 -9999 -9999 -9999 -9999 -9999 -9999 -9999 -9999 -9999 -9999 -9999 -9999 -9999 -9999 -9999 -9999 -9999 -9999 -9999 -9999 -9999 -9999 -9999 -9999 -9999 -9999 -9999 -9999 -9999 -9999 -9999 -9999 -9999 -9999 -9999 -9999 -9999 -9999 -9999 -9999 -9999 -9999 -9999 -9999 -9999 -9999 -9999 -9999 -9999 -9999 -9999 -9999 -9999 -9999 -9999 -9999 -9999 -9999 -9999 -9999 -9999 -9999 -9999 -9999 -9999 -9999 -9999 -9999 -9999 -9999 -9999 -9999 -9999 -9999 -9999 -9999 -9999 -9999 -9999 -9999 -9999 -9999 -9999 -9999 -9999 -9999 -9999 -9999 -9999 -9999 -9999 -9999 -9999 -9999 -9999 -9999 -9999 -9999 -9999 -9999 -9999 -9999 -9999 -9999 -9999 -9999 -9999 -9999 -9999 -9999 -9999 -9999 -9999 -9999 -9999 -9999 -9999 -9999 -9999 -9999
-9999 -9999 -9999 -9999 -9999 -9999 -9999 -9999 -9999 -9999 -9999 -9999 270 295 334 263 293 248 173 167 174 212 219 239 249 251 263 270 276 230 224 208 204 232 237 245 244 284 277 248 234 322 330 327 333 378 355 375 310 345 389 300 346 339 272 276 336 319 315 303 313 394 393 433 433 409 309 287 325 246 327 301 337 236 238 231 268 279 289 279 268 266 253 235 231 242 247 246 272 263 258 267 257 263 266 257 241 227 240 318 288 290 292 296 272 292 282 342 359 304 403 395 301 433 430 336 355 366 357 393 380 327 415 284 466 427 333 260 170 125 115 104 102 100 99 99 97 94 94 94 94 95 96 90 88 92 92 95 93 95 99 92 98 99 99 90 100 96 99 98 99 99 99 104 144 256 268 296 318 264 261 377 472 400 526 352 524 433 234 316 444 382 213 340 440 415 315 432 411 364 431 341 266 235 270 373 304 540 523 527 531 513 481 465 457 445 403 368 313 302 266 391 394 406 424 410 428 406 414 436 389 412 395 352 324 359 386 382 378 377 402 376 357 358 318 327 343 293 294 252 192 209 252 288 349 370 338 303 329 340 332 330 342 336 331 338 324 327 319 309 306 307 302 307 313 308 315 320 321 330 324 315 315 327 328 315 301 283 300 299 325 356 386 399 368 346 336 326 320 321 315 310 309 334 410 396 406 338 326 333 322 330 339 338 340 291 285 305 331 311 315 342 328 318 359 357 355 340 332 329 348 341 346 361 334 344 307 299 295 289 279 279 275 265 297 374 388 361 362 376 333 347 352 322 351 397 403 445 421 387 336 341 398 394 475 517 496 492 528 488 515 478 501 543 527 492 483 524 496 436 472 442 409 398 395 404 427 440 476 493 523 484 483 455 447 423 427 407 404 401 420 414 408 412 415 422 431 444 446 463 455 442 431 429 418 445 438 410 394 392 408 439 422 499 445 455 405 390 390 430 458 471 532 620 577 526 490 503 513 536 558 589 625 703 540 520 532 603 609 569 565 635 615 536 538 536 -9999 -9999 -9999 -9999 -9999 -9999 -9999 -9999 -9999 -9999 -9999 -9999 -9999 -9999 -9999 -9999 -9999 -9999 -9999 -9999 -9999 -9999 -9999 -9999 -9999 -9999 -9999 -9999 -9999 -9999 -9999 -9999 -9999 -9999 -9999 -9999 -9999 -9999 -9999 -9999 -9999 -9999 -9999 -9999 -9999 -9999 -9999 -9999 -9999 -9999 -9999 -9999 -9999 -9999 -9999 -9999 -9999 -9999 -9999 -9999 -9999 -9999 -9999 -9999 -9999 -9999 -9999 -9999 -9999 -9999 -9999 -9999 -9999 -9999 -9999 -9999 -9999 -9999 -9999 -9999 -9999 -9999 -9999 -9999 -9999 -9999 -9999 -9999 -9999 -9999 -9999 -9999 -9999 -9999 -9999 -9999 -9999 -9999 -9999 -9999 -9999 -9999 -9999 -9999 -9999 -9999 -9999 -9999 -9999 -9999 -9999 -9999 -9999 -9999 -9999 -9999 -9999 -9999 -9999 -9999 -9999 -9999 -9999 -9999 -9999 -9999 -9999 -9999 -9999 -9999 -9999 -9999 -9999 -9999 -9999 -9999 -9999 -9999 -9999 -9999 -9999 -9999 -9999 -9999 -9999 -9999 -9999 -9999 -9999 -9999 -9999 -9999 -9999 -9999 -9999 -9999 -9999 -9999 -9999 -9999 -9999 -9999 -9999 -9999 -9999 -9999 -9999 -9999 -9999 -9999 -9999 -9999 -9999 -9999 -9999 -9999 -9999 -9999 -9999 -9999 -9999 -9999 -9999 -9999 -9999 -9999 -9999
-9999 -9999 -9999 -9999 -9999 -9999 -9999 -9999 -9999 -9999 -9999 -9999 274 301 311 319 207 213 234 178 175 176 235 241 245 244 221 231 197 196 216 258 375 400 373 288 248 283 318 332 291 318 412 288 248 295 308 362 296 327 327 360 322 269 296 260 306 323 332 331 314 347 377 434 425 337 289 261 275 309 239 307 234 237 220 285 263 268 254 250 262 253 251 236 231 235 233 235 238 245 243 243 246 252 254 233 251 232 267 247 249 313 283 296 301 320 321 312 316 326 388 390 331 431 429 406 363 280 306 343 391 373 430 335 276 409 303 167 142 110 106 104 102 102 102 100 98 95 95 95 95 95 96 91 93 93 92 93 94 95 96 93 99 93 100 98 99 101 100 100 101 100 100 102 144 289 241 305 364 330 382 401 414 463 445 363 394 412 278 445 415 335 301 458 375 407 293 427 374 379 379 339 297 274 271 373 382 491 533 539 525 517 480 461 463 443 419 463 409 369 392 346 364 385 414 420 432 422 431 418 401 388 392 360 332 375 382 407 398 387 391 375 373 365 351 345 373 373 364 299 246 199 296 337 336 313 337 326 363 328 317 324 336 324 334 327 323 329 305 297 291 299 300 298 306 311 323 300 314 298 312 323 303 318 324 308 321 318 313 316 327 334 351 378 377 397 343 322 333 333 342 312 388 363 413 345 359 406 354 335 341 322 306 357 354 349 287 300 334 347 338 331 360 369 381 358 340 336 340 342 339 336 325 330 352 334 341 322 306 295 290 282 273 265 287 303 308 327 313 323 323 345 313 317 368 357 349 364 357 349 328 390 501 513 507 524 505 413 508 488 547 525 550 534 544 507 487 459 496 424 461 436 450 389 389 430 491 501 513 532 488 464 478 476 437 423 430 412 404 406 400 401 396 396 406 401 404 409 413 424 460 465 460 441 416 428 415 428 416 397 390 427 453 456 424 405 402 388 399 456 478 446 484 553 566 541 492 503 510 563 585 585 600 591 548 518 513 580 532 556 538 530 541 516 543 520 -9999 -9999 -9999 -9999 -9999 -9999 -9999 -9999 -9999 -9999 -9999 -9999 -9999 -9999 -9999 -9999 -9999 -9999 -9999 -9999 -9999 -9999 -9999 -9999 -9999 -9999 -9999 -9999 -9999 -9999 -9999 -9999 -9999 -9999 -9999 -9999 -9999 -9999 -9999 -9999 -9999 -9999 -9999 -9999 -9999 -9999 -9999 -9999 -9999 -9999 -9999 -9999 -9999 -9999 -9999 -9999 -9999 -9999 -9999 -9999 -9999 -9999 -9999 -9999 -9999 -9999 -9999 -9999 -9999 -9999 -9999 -9999 -9999 -9999 -9999 -9999 -9999 -9999 -9999 -9999 -9999 -9999 -9999 -9999 -9999 -9999 -9999 -9999 -9999 -9999 -9999 -9999 -9999 -9999 -9999 -9999 -9999 -9999 -9999 -9999 -9999 -9999 -9999 -9999 -9999 -9999 -9999 -9999 -9999 -9999 -9999 -9999 -9999 -9999 -9999 -9999 -9999 -9999 -9999 -9999 -9999 -9999 -9999 -9999 -9999 -9999 -9999 -9999 -9999 -9999 -9999 -9999 -9999 -9999 -9999 -9999 -9999 -9999 -9999 -9999 -9999 -9999 -9999 -9999 -9999 -9999 -9999 -9999 -9999 -9999 -9999 -9999 -9999 -9999 -9999 -9999 -9999 -9999 -9999 -9999 -9999 -9999 -9999 -9999 -9999 -9999 -9999 -9999 -9999 -9999 -9999 -9999 -9999 -9999 -9999 -9999 -9999 -9999 -9999 -9999 -9999 -9999 -9999 -9999 -9999 -9999 -9999
-9999 -9999 -9999 -9999 -9999 -9999 -9999 -9999 -9999 -9999 -9999 -9999 -9999 269 272 179 176 176 209 182 175 179 220 236 226 223 192 193 246 246 258 320 306 335 328 273 287 273 283 303 355 381 346 368 318 287 351 348 287 317 345 420 345 315 265 342 398 377 350 333 358 386 431 436 377 345 284 321 319 291 302 239 268 223 223 269 254 246 240 232 232 233 234 234 233 232 233 235 237 236 238 242 243 245 247 249 253 256 235 235 238 246 249 267 327 317 307 319 307 269 383 360 328 401 338 337 316 325 273 276 329 367 310 191 225 319 191 210 115 111 109 109 126 122 109 100 101 95 95 95 95 95 95 93 88 92 92 92 95 98 94 95 88 92 100 98 99 101 102 99 99 101 101 110 160 337 356 322 386 385 475 404 415 460 322 439 423 248 433 456 384 192 384 464 321 378 334 433 385 285 373 243 272 481 527 543 524 478 549 545 497 500 485 451 476 438 426 444 369 376 346 334 340 350 425 438 415 429 401 387 339 378 359 408 374 344 382 386 385 372 389 382 377 328 369 349 333 358 363 282 316 190 242 367 344 363 337 360 323 352 359 358 352 330 347 310 327 333 329 309 291 315 309 309 311 306 322 293 286 316 305 295 313 313 323 315 308 309 313 333 341 350 405 346 353 344 350 323 319 318 316 345 427 373 336 331 330 309 305 326 339 318 308 300 312 289 308 318 305 327 338 378 385 368 374 385 357 342 337 343 338 336 327 325 327 333 323 321 312 300 298 293 274 269 277 282 280 295 308 299 316 309 307 319 319 321 378 366 325 354 319 350 358 514 537 526 512 422 505 427 503 538 561 519 539 538 505 456 485 490 435 431 416 392 427 408 439 582 595 573 461 471 476 470 437 427 420 430 408 405 400 405 395 427 411 404 403 404 407 415 418 456 433 419 415 455 421 405 401 398 396 389 388 409 404 398 391 387 406 458 466 432 461 519 539 457 521 506 524 542 564 559 617 630 577 578 496 589 525 534 501 518 508 509 499 509 -9999 -9999 -9999 -9999 -9999 -9999 -9999 -9999 -9999 -9999 -9999 -9999 -9999 -9999 -9999 -9999 -9999 -9999 -9999 -9999 -9999 -9999 -9999 -9999 -9999 -9999 -9999 -9999 -9999 -9999 -9999 -9999 -9999 -9999 -9999 -9999 -9999 -9999 -9999 -9999 -9999 -9999 -9999 -9999 -9999 -9999 -9999 -9999 -9999 -9999 -9999 -9999 -9999 -9999 -9999 -9999 -9999 -9999 -9999 -9999 -9999 -9999 -9999 -9999 -9999 -9999 -9999 -9999 -9999 -9999 -9999 -9999 -9999 -9999 -9999 -9999 -9999 -9999 -9999 -9999 -9999 -9999 -9999 -9999 -9999 -9999 -9999 -9999 -9999 -9999 -9999 -9999 -9999 -9999 -9999 -9999 -9999 -9999 -9999 -9999 -9999 -9999 -9999 -9999 -9999 -9999 -9999 -9999 -9999 -9999 -9999 -9999 -9999 -9999 -9999 -9999 -9999 -9999 -9999 -9999 -9999 -9999 -9999 -9999 -9999 -9999 -9999 -9999 -9999 -9999 -9999 -9999 -9999 -9999 -9999 -9999 -9999 -9999 -9999 -9999 -9999 -9999 -9999 -9999 -9999 -9999 -9999 -9999 -9999 -9999 -9999 -9999 -9999 -9999 -9999 -9999 -9999 -9999 -9999 -9999 -9999 -9999 -9999 -9999 -9999 -9999 -9999 -9999 -9999 -9999 -9999 -9999 -9999 -9999 -9999 -9999 -9999 -9999 -9999 -9999 -9999 -9999 -9999 -9999 -9999 -9999 -9999
-9999 -9999 -9999 -9999 -9999 -9999 -9999 -9999 -9999 -9999 226 256 237 189 192 211 249 216 195 272 180 184 197 191 185 189 196 209 226 264 289 262 290 287 317 293 310 284 299 318 293 330 359 318 328 255 283 306 353 381 360 411 372 329 332 307 345 305 280 304 404 471 484 460 415 355 332 319 302 263 253 240 260 249 240 230 225 224 227 231 234 234 235 237 239 237 238 242 243 251 276 278 277 266 268 291 263 253 279 284 320 263 243 331 289 318 308 270 270 265 270 393 381 412 315 298 357 308 349 265 197 201 380 390 224 194 153 173 150 141 140 136 127 123 109 99 100 95 95 95 95 95 89 91 89 94 92 92 95 89 95 94 94 94 95 96 97 99 100 99 101 102 105 112 161 322 327 375 332 303 463 383 330 360 311 345 249 231 440 456 312 229 392 464 403 262 331 494 454 298 366 237 419 282 322 565 557 543 541 529 497 462 487 464 455 455 449 439 417 339 373 348 328 337 374 390 413 387 407 360 318 350 378 401 384 367 340 369 366 386 361 371 365 289 354 304 353 285 356 303 212 198 199 319 330 317 255 286 338 349 376 363 320 333 308 340 335 354 333 306 297 325 320 307 294 282 280 296 300 314 307 315 329 331 305 325 323 322 334 342 353 358 346 342 339 342 338 323 329 376 352 378 354 379 438 380 372 329 320 309 305 294 293 295 330 302 313 345 362 357 380 359 362 354 344 361 363 358 347 350 324 336 342 325 328 328 323 312 310 305 295 295 274 279 281 284 286 289 290 293 290 298 302 302 308 311 336 354 331 312 315 339 374 395 469 443 442 417 397 431 544 491 539 503 542 480 465 467 450 459 375 452 447 473 422 466 468 510 512 498 505 545 476 476 449 432 421 436 423 415 414 417 395 414 460 446 439 420 409 411 417 422 449 444 429 407 418 437 418 415 403 396 394 387 408 425 385 387 450 457 446 428 428 516 503 462 532 540 529 541 537 565 575 591 649 528 499 504 497 502 495 513 503 505 500 506 -9999 -9999 -9999 -9999 -9999 -9999 -9999 -9999 -9999 -9999 -9999 -9999 -9999 -9999 -9999 -9999 -9999 -9999 -9999 -9999 -9999 -9999 -9999 -9999 -9999 -9999 -9999 -9999 -9999 -9999 -9999 -9999 -9999 -9999 -9999 -9999 -9999 -9999 -9999 -9999 -9999 -9999 -9999 -9999 -9999 -9999 -9999 -9999 -9999 -9999 -9999 -9999 -9999 -9999 -9999 -9999 -9999 -9999 -9999 -9999 -9999 -9999 -9999 -9999 -9999 -9999 -9999 -9999 -9999 -9999 -9999 -9999 -9999 -9999 -9999 -9999 -9999 -9999 -9999 -9999 -9999 -9999 -9999 -9999 -9999 -9999 -9999 -9999 -9999 -9999 -9999 -9999 -9999 -9999 -9999 -9999 -9999 -9999 -9999 -9999 -9999 -9999 -9999 -9999 -9999 -9999 -9999 -9999 -9999 -9999 -9999 -9999 -9999 -9999 -9999 -9999 -9999 -9999 -9999 -9999 -9999 -9999 -9999 -9999 -9999 -9999 -9999 -9999 -9999 -9999 -9999 -9999 -9999 -9999 -9999 -9999 -9999 -9999 -9999 -9999 -9999 -9999 -9999 -9999 -9999 -9999 -9999 -9999 -9999 -9999 -9999 -9999 -9999 -9999 -9999 -9999 -9999 -9999 -9999 -9999 -9999 -9999 -9999 -9999 -9999 -9999 -9999 -9999 -9999 -9999 -9999 -9999 -9999 -9999 -9999 -9999 -9999 -9999 -9999 -9999 -9999 -9999 -9999 -9999 -9999 -9999 -9999
-9999 -9999 -9999 -9999 -9999 -9999 -9999 -9999 -9999 -9999 -9999 224 184 250 283 293 285 207 330 226 180 180 183 185 209 201 215 219 219 223 235 276 242 250 234 238 280 282 294 296 302 309 336 313 286 313 264 324 309 350 338 347 351 320 298 252 349 309 355 347 365 466 401 370 346 326 293 285 266 245 243 258 253 241 237 234 225 227 230 231 237 251 265 355 325 326 298 359 291 375 325 315 390 272 304 280 300 278 267 278 307 310 300 323 305 359 308 349 298 396 391 331 405 416 289 296 318 352 423 332 345 290 468 369 393 269 314 218 149 139 133 126 122 116 107 103 99 95 95 95 95 95 96 91 89 95 95 95 93 92 93 94 94 94 95 96 97 92 100 101 101 103 106 114 147 191 235 254 230 373 384 454 377 255 424 284 244 426 412 462 362 189 355 476 428 196 376 509 363 370 334 215 214 361 362 348 555 516 530 513 505 501 499 489 417 456 443 431 373 412 381 353 342 394 405 396 373 350 365 384 314 386 369 368 382 393 377 383 385 386 362 374 380 312 264 288 265 240 337 239 209 335 194 286 219 305 315 361 350 351 346 359 346 323 291 341 360 345 330 285 336 330 323 315 291 317 322 338 326 323 324 315 336 325 322 328 317 313 333 348 349 363 333 347 348 349 334 329 369 333 325 318 313 310 328 369 330 321 304 298 294 295 320 301 333 338 340 327 340 360 378 368 358 357 349 369 354 358 349 340 322 327 328 297 318 324 327 326 320 308 301 296 274 286 284 287 287 291 296 297 300 302 303 305 309 311 310 315 321 337 343 326 354 405 422 395 466 416 369 524 523 513 519 490 570 540 480 484 374 479 496 464 496 477 482 496 483 529 586 560 547 501 474 452 453 463 460 459 455 445 392 417 426 405 424 473 486 460 431 428 461 423 443 447 428 420 441 442 455 434 414 402 403 396 389 407 384 393 415 432 439 407 425 483 434 518 519 541 516 526 558 578 579 560 582 525 484 486 527 487 531 494 500 505 495 498 500 -9999 -9999 -9999 -9999 -9999 -9999 -9999 -9999 -9999 -9999 -9999 -9999 -9999 -9999 -9999 -9999 -9999 -9999 -9999 -9999 -9999 -9999 -9999 -9999 -9999 -9999 -9999 -9999 -9999 -9999 -9999 -9999 -9999 -9999 -9999 -9999 -9999 -9999 -9999 -9999 -9999 -9999 -9999 -9999 -9999 -9999 -9999 -9999 -9999 -9999 -9999 -9999 -9999 -9999 -9999 -9999 -9999 -9999 -9999 -9999 -9999 -9999 -9999 -9999 -9999 -9999 -9999 -9999 -9999 -9999 -9999 -9999 -9999 -9999 -9999 -9999 -9999 -9999 -9999 -9999 -9999 -9999 -9999 -9999 -9999 -9999 -9999 -9999 -9999 -9999 -9999 -9999 -9999 -9999 -9999 -9999 -9999 -9999 -9999 -9999 -9999 -9999 -9999 -9999 -9999 -9999 -9999 -9999 -9999 -9999 -9999 -9999 -9999 -9999 -9999 -9999 -9999 -9999 -9999 -9999 -9999 -9999 -9999 -9999 -9999 -9999 -9999 -9999 -9999 -9999 -9999 -9999 -9999 -9999 -9999 -9999 -9999 -9999 -9999 -9999 -9999 -9999 -9999 -9999 -9999 -9999 -9999 -9999 -9999 -9999 -9999 -9999 -9999 -9999 -9999 -9999 -9999 -9999 -9999 -9999 -9999 -9999 -9999 -9999 -9999 -9999 -9999 -9999 -9999 -9999 -9999 -9999 -9999 -9999 -9999 -9999 -9999 -9999 -9999 -9999 -9999 -9999 -9999 -9999 -9999 -9999
-9999 -9999 -9999 -9999 -9999 -9999 -9999 -9999 -9999 -9999 -9999 189 240 232 337 336 307 331 300 348 262 180 181 195 209 213 216 217 206 208 216 224 252 269 289 315 260 254 254 312 330 313 354 315 329 316 328 285 338 304 292 333 307 324 281 247 277 278 315 410 402 374 368 334 309 302 272 253 251 251 249 235 234 239 236 226 235 339 273 356 342 347 347 340 290 371 379 368 386 357 364 367 383 289 373 321 404 403 370 425 395 309 265 332 320 344 343 381 389 354 379 244 324 380 256 312 346 366 309 352 330 460 403 321 276 420 333 271 158 138 125 121 121 117 111 107 105 95 96 96 96 96 96 97 96 96 95 99 92 92 93 93 94 94 95 95 100 98 100 101 101 102 104 109 178 340 363 352 354 329 459 479 306 227 417 337 180 300 421 335 356 167 291 477 396 310 356 337 331 180 189 172 206 466 505 395 345 517 492 517 516 493 494 484 429 437 435 420 424 390 338 371 357 399 407 416 347 336 363 362 362 352 371 379 375 368 357 361 349 379 373 368 364 361 356 360 336 325 246 208 290 342 193 306 341 365 368 355 364 313 379 364 331 264 315 346 373 363 312 310 319 324 342 310 311 325 327 340 333 325 322 329 341 323 342 336 342 326 341 346 339 358 368 430 423 353 362 415 398 355 329 320 316 315 305 316 323 308 295 296 304 315 330 373 338 352 370 372 379 385 385 376 369 359 354 365 346 342 343 306 346 338 335 331 318 295 305 308 311 312 300 277 275 286 290 294 292 294 303 304 317 313 314 319 326 325 332 326 335 343 358 340 338 369 400 378 389 424 374 390 439 553 511 441 568 536 467 465 423 469 536 523 498 511 459 458 476 487 535 558 544 514 501 483 486 478 503 479 462 453 455 454 456 427 438 453 489 463 430 475 454 486 472 473 445 461 446 458 447 432 424 416 415 402 392 381 383 394 464 489 445 402 431 475 484 482 501 517 515 544 549 579 548 569 521 503 503 512 503 522 526 524 494 494 495 495 497 498 -9999 -9999 -9999 -9999 -9999 -9999 -9999 -9999 -9999 -9999 -9999 -9999 -9999 -9999 -9999 -9999 -9999 -9999 -9999 -9999 -9999 -9999 -9999 -9999 -9999 -9999 -9999 -9999 -9999 -9999 -9999 -9999 -9999 -9999 -9999 -9999 -9999 -9999 -9999 -9999 -9999 -9999 -9999 -9999 -9999 -9999 -9999 -9999 -9999 -9999 -9999 -9999 -9999 -9999 -9999 -9999 -9999 -9999 -9999 -9999 -9999 -9999 -9999 -9999 -9999 -9999 -9999 -9999 -9999 -9999 -9999 -9999 -9999 -9999 -9999 -9999 -9999 -9999 -9999 -9999 -9999 -9999 -9999 -9999 -9999 -9999 -9999 -9999 -9999 -9999 -9999 -9999 -9999 -9999 -9999 -9999 -9999 -9999 -9999 -9999 -9999 -9999 -9999 -9999 -9999 -9999 -9999 -9999 -9999 -9999 -9999 -9999 -9999 -9999 -9999 -9999 -9999 -9999 -9999 -9999 -9999 -9999 -9999 -9999 -9999 -9999 -9999 -9999 -9999 -9999 -9999 -9999 -9999 -9999 -9999 -9999 -9999 -9999 -9999 -9999 -9999 -9999 -9999 -9999 -9999 -9999 -9999 -9999 -9999 -9999 -9999 -9999 -9999 -9999 -9999 -9999 -9999 -9999 -9999 -9999 -9999 -9999 -9999 -9999 -9999 -9999 -9999 -9999 -9999 -9999 -9999 -9999 -9999 -9999 -9999 -9999 -9999 -9999 -9999 -9999 -9999 -9999 -9999 -9999 -9999
-9999 -9999 -9999 -9999 -9999 -9999 -9999 -9999 -9999 -9999 -9999 -9999 288 260 257 311 322 341 315 210 200 178 179 187 201 213 212 227 227 236 212 269 260 264 254 286 271 241 263 317 314 337 339 374 318 290 350 366 348 306 313 260 324 302 285 247 273 291 387 358 294 336 296 312 296 283 287 265 254 254 240 244 231 233 233 239 258 344 424 341 326 438 444 420 449 428 360 456 407 372 348 291 356 306 294 370 358 393 363 323 392 337 317 335 374 359 392 343 350 277 295 397 374 280 300 246 406 415 395 432 408 498 338 489 335 288 343 306 157 118 116 113 108 105 103 103 103 99 95 96 96 97 96 96 97 97 93 91 92 92 92 93 94 96 96 98 101 100 101 104 103 103 105 107 139 330 388 452 389 425 520 355 410 342 345 385 340 249 287 373 271 268 420 395 312 237 391 130 277 343 411 415 397 373 403 525 550 490 520 514 510 498 494 464 450 427 427 417 399 341 351 322 381 352 390 373 338 319 360 346 339 348 317 351 357 348 345 335 358 381 349 333 370 363 329 369 345 277 216 228 348 343 201 274 326 347 310 351 317 357 359 358 344 290 352 354 367 344 276 332 268 306 322 285 291 335 338 350 335 324 323 343 342 352 342 361 344 345 362 357 366 353 361 372 374 394 374 350 356 324 315 313 314 315 301 301 303 297 307 343 325 346 353 380 385 387 380 381 386 376 350 385 351 322 344 338 349 334 359 358 361 358 341 333 325 327 302 288 291 286 287 290 277 290 298 295 303 306 311 328 342 352 343 350 356 358 357 352 355 362 378 375 361 363 372 363 374 395 364 389 495 514 529 484 442 553 515 502 432 436 491 465 462 487 472 468 458 458 486 516 554 531 505 521 535 537 524 521 521 411 452 494 481 476 452 473 483 466 454 506 498 478 546 504 490 494 490 445 461 449 465 443 432 425 405 388 382 398 469 437 424 417 433 484 546 544 508 518 550 573 537 570 563 556 502 500 481 490 505 487 506 511 524 512 533 498 498 499 -9999 -9999 -9999 -9999 -9999 -9999 -9999 -9999 -9999 -9999 -9999 -9999 -9999 -9999 -9999 -9999 -9999 -9999 -9999 -9999 -9999 -9999 -9999 -9999 -9999 -9999 -9999 -9999 -9999 -9999 -9999 -9999 -9999 -9999 -9999 -9999 -9999 -9999 -9999 -9999 -9999 -9999 -9999 -9999 -9999 -9999 -9999 -9999 -9999 -9999 -9999 -9999 -9999 -9999 -9999 -9999 -9999 -9999 -9999 -9999 -9999 -9999 -9999 -9999 -9999 -9999 -9999 -9999 -9999 -9999 -9999 -9999 -9999 -9999 -9999 -9999 -9999 -9999 -9999 -9999 -9999 -9999 -9999 -9999 -9999 -9999 -9999 -9999 -9999 -9999 -9999 -9999 -9999 -9999 -9999 -9999 -9999 -9999 -9999 -9999 -9999 -9999 -9999 -9999 -9999 -9999 -9999 -9999 -9999 -9999 -9999 -9999 -9999 -9999 -9999 -9999 -9999 -9999 -9999 -9999 -9999 -9999 -9999 -9999 -9999 -9999 -9999 -9999 -9999 -9999 -9999 -9999 -9999 -9999 -9999 -9999 -9999 -9999 -9999 -9999 -9999 -9999 -9999 -9999 -9999 -9999 -9999 -9999 -9999 -9999 -9999 -9999 -9999 -9999 -9999 -9999 -9999 -9999 -9999 -9999 -9999 -9999 -9999 -9999 -9999 -9999 -9999 -9999 -9999 -9999 -9999 -9999 -9999 -9999 -9999 -9999 -9999 -9999 -9999 -9999 -9999 -9999 -9999 -9999 -9999
-9999 -9999 -9999 -9999 -9999 -9999 -9999 -9999 -9999 -9999 -9999 -9999 290 211 270 334 335 375 232 195 194 193 179 181 185 204 203 228 240 253 254 244 226 259 233 238 254 233 281 260 266 327 379 404 383 358 331 371 330 304 265 261 270 278 269 298 324 282 314 283 280 296 297 294 265 278 270 249 245 246 236 238 301 284 375 331 374 307 355 410 343 420 421 347 393 380 428 338 359 364 381 363 336 319 358 282 337 293 298 365 366 334 358 317 381 382 368 347 361 390 394 339 354 351 309 308 346 393 466 426 456 356 451 319 477 465 435 275 154 116 109 108 107 106 106 104 102 103 96 96 97 97 96 97 96 93 93 94 96 91 91 90 95 98 101 101 101 105 104 105 98 105 109 108 122 202 307 462 462 389 463 500 400 438 256 389 407 464 258 364 209 382 441 430 270 136 130 139 276 418 521 540 453 521 486 533 556 550 528 512 482 473 482 437 364 438 407 392 395 356 355 321 385 335 344 341 339 324 326 360 372 322 349 317 366 314 334 319 389 373 347 329 317 340 350 267 295 229 350 248 358 360 207 224 323 339 251 316 249 367 317 361 289 282 317 361 344 339 279 243 315 244 261 325 355 349 340 348 338 333 345 363 359 363 367 372 366 374 361 372 388 379 358 374 351 342 382 344 356 360 334 326 328 318 305 304 299 307 359 354 365 372 358 399 397 393 376 388 397 393 391 349 334 390 376 390 389 388 386 391 375 357 342 347 338 331 332 324 316 309 306 304 279 288 295 300 301 310 329 362 386 388 401 412 417 418 412 395 372 358 406 388 387 387 371 357 358 372 351 398 536 536 518 433 505 541 529 496 480 423 469 452 478 491 472 443 440 478 512 553 567 517 534 552 552 530 449 453 487 420 391 515 488 490 480 503 488 470 467 495 517 490 513 509 525 516 474 520 519 495 503 486 456 458 430 396 382 389 392 430 447 410 426 409 463 480 547 584 582 567 518 559 512 512 475 486 511 522 552 560 502 498 521 532 550 511 515 502 -9999 -9999 -9999 -9999 -9999 -9999 -9999 -9999 -9999 -9999 -9999 -9999 -9999 -9999 -9999 -9999 -9999 -9999 -9999 -9999 -9999 -9999 -9999 -9999 -9999 -9999 -9999 -9999 -9999 -9999 -9999 -9999 -9999 -9999 -9999 -9999 -9999 -9999 -9999 -9999 -9999 -9999 -9999 -9999 -9999 -9999 -9999 -9999 -9999 -9999 -9999 -9999 -9999 -9999 -9999 -9999 -9999 -9999 -9999 -9999 -9999 -9999 -9999 -9999 -9999 -9999 -9999 -9999 -9999 -9999 -9999 -9999 -9999 -9999 -9999 -9999 -9999 -9999 -9999 -9999 -9999 -9999 -9999 -9999 -9999 -9999 -9999 -9999 -9999 -9999 -9999 -9999 -9999 -9999 -9999 -9999 -9999 -9999 -9999 -9999 -9999 -9999 -9999 -9999 -9999 -9999 -9999 -9999 -9999 -9999 -9999 -9999 -9999 -9999 -9999 -9999 -9999 -9999 -9999 -9999 -9999 -9999 -9999 -9999 -9999 -9999 -9999 -9999 -9999 -9999 -9999 -9999 -9999 -9999 -9999 -9999 -9999 -9999 -9999 -9999 -9999 -9999 -9999 -9999 -9999 -9999 -9999 -9999 -9999 -9999 -9999 -9999 -9999 -9999 -9999 -9999 -9999 -9999 -9999 -9999 -9999 -9999 -9999 -9999 -9999 -9999 -9999 -9999 -9999 -9999 -9999 -9999 -9999 -9999 -9999 -9999 -9999 -9999 -9999 -9999 -9999 -9999 -9999 -9999 -9999
-9999 -9999 -9999 -9999 -9999 -9999 -9999 -9999 -9999 -9999 -9999 -9999 -9999 234 290 283 323 337 338 205 204 208 181 181 180 191 214 237 239 221 259 248 280 253 250 229 241 231 284 324 287 353 426 385 367 330 296 380 364 291 366 307 258 270 255 266 242 241 238 280 256 269 258 282 277 263 261 247 242 237 246 288 354 312 366 358 384 341 398 366 348 346 313 371 344 424 403 336 334 396 342 322 346 342 354 381 369 371 328 395 329 365 368 378 357 357 301 338 399 390 415 436 443 390 376 301 229 304 466 553 467 402 360 381 442 349 392 226 159 125 112 113 112 110 108 108 105 106 102 96 96 96 97 96 96 93 94 94 90 93 90 94 96 98 107 101 103 104 104 104 104 105 108 107 108 228 360 380 475 377 314 411 310 422 236 435 378 449 236 142 139 125 309 246 135 245 168 122 373 333 427 505 509 535 496 508 536 519 522 486 465 408 450 442 401 388 387 387 379 390 334 332 356 342 359 358 342 315 339 329 333 344 328 345 327 313 326 388 390 391 388 343 273 334 339 263 237 256 343 345 324 365 281 203 203 271 214 224 277 370 312 365 334 267 253 329 297 339 239 321 357 301 279 329 282 335 334 361 345 336 346 354 369 380 384 380 385 390 387 401 393 377 377 363 340 338 357 349 337 327 331 317 314 311 306 300 307 324 392 369 365 363 403 408 400 399 382 366 380 373 345 347 392 397 391 405 390 387 393 393 385 371 358 348 352 354 342 341 332 328 318 305 284 289 298 302 300 307 315 336 344 379 390 406 372 376 426 414 391 388 385 388 376 384 363 365 356 373 346 482 420 471 533 487 456 443 508 468 472 377 479 487 449 404 509 479 471 491 457 513 492 499 539 572 495 459 420 414 399 411 397 458 423 480 527 519 519 514 510 479 461 442 440 438 478 498 525 496 545 527 530 522 473 446 435 417 380 450 501 444 452 450 527 503 470 557 527 565 516 501 521 538 487 488 520 514 535 520 540 566 562 529 514 522 547 521 545 514 518 -9999 -9999 -9999 -9999 -9999 -9999 -9999 -9999 -9999 -9999 -9999 -9999 -9999 -9999 -9999 -9999 -9999 -9999 -9999 -9999 -9999 -9999 -9999 -9999 -9999 -9999 -9999 -9999 -9999 -9999 -9999 -9999 -9999 -9999 -9999 -9999 -9999 -9999 -9999 -9999 -9999 -9999 -9999 -9999 -9999 -9999 -9999 -9999 -9999 -9999 -9999 -9999 -9999 -9999 -9999 -9999 -9999 -9999 -9999 -9999 -9999 -9999 -9999 -9999 -9999 -9999 -9999 -9999 -9999 -9999 -9999 -9999 -9999 -9999 -9999 -9999 -9999 -9999 -9999 -9999 -9999 -9999 -9999 -9999 -9999 -9999 -9999 -9999 -9999 -9999 -9999 -9999 -9999 -9999 -9999 -9999 -9999 -9999 -9999 -9999 -9999 -9999 -9999 -9999 -9999 -9999 -9999 -9999 -9999 -9999 -9999 -9999 -9999 -9999 -9999 -9999 -9999 -9999 -9999 -9999 -9999 -9999 -9999 -9999 -9999 -9999 -9999 -9999 -9999 -9999 -9999 -9999 -9999 -9999 -9999 -9999 -9999 -9999 -9999 -9999 -9999 -9999 -9999 -9999 -9999 -9999 -9999 -9999 -9999 -9999 -9999 -9999 -9999 -9999 -9999 -9999 -9999 -9999 -9999 -9999 -9999 -9999 -9999 -9999 -9999 -9999 -9999 -9999 -9999 -9999 -9999 -9999 -9999 -9999 -9999 -9999 -9999 -9999 -9999 -9999 -9999 -9999 -9999 -9999
-9999 -9999 -9999 -9999 -9999 -9999 -9999 -9999 -9999 -9999 -9999 -9999 -9999 -9999 234 256 265 304 329 236 214 206 181 182 181 192 190 200 224 240 272 281 280 292 257 229 250 251 264 284 338 385 383 356 320 278 276 375 341 368 301 313 265 334 274 274 315 291 234 259 255 259 258 259 260 253 260 253 241 251 292 299 387 370 398 333 328 405 381 397 309 382 304 401 343 310 439 433 321 408 445 330 341 355 374 389 363 411 392 348 407 326 341 438 374 395 318 345 439 377 452 466 442 443 443 329 265 256 321 394 550 412 324 426 425 386 278 168 145 111 110 109 110 112 110 108 106 104 104 102 97 97 97 97 95 93 97 97 93 91 91 93 96 99 104 102 103 105 105 105 106 107 106 108 110 157 254 332 462 215 356 422 312 251 254 384 347 426 465 397 143 141 217 254 326 305 283 366 253 414 410 495 487 494 467 513 511 482 457 443 380 426 409 385 330 397 387 374 351 345 331 299 319 343 317 340 350 325 321 344 348 316 306 314 300 328 384 361 355 380 351 353 306 335 259 340 319 343 367 327 348 346 349 278 235 209 230 206 231 271 359 396 384 226 294 234 234 261 313 375 374 323 278 320 338 345 329 337 336 358 352 377 387 371 389 381 376 394 400 407 389 360 387 368 349 324 328 360 335 324 314 311 306 303 302 305 322 344 427 368 409 400 421 410 408 395 400 395 380 388 394 384 395 393 384 357 392 378 348 386 381 379 351 347 355 343 330 325 327 321 315 284 286 287 297 303 301 306 311 323 338 339 354 367 371 374 392 378 427 407 399 371 369 391 355 364 339 351 342 397 436 510 474 511 388 405 538 486 355 435 484 414 450 454 510 544 522 462 461 472 473 480 529 577 492 484 440 410 419 409 384 403 409 475 533 567 522 492 505 469 467 439 437 469 485 457 454 449 484 448 428 420 406 410 404 432 385 431 513 532 471 500 567 596 566 585 476 446 565 583 469 480 506 583 533 504 546 559 560 590 560 541 545 519 551 555 550 518 516 -9999 -9999 -9999 -9999 -9999 -9999 -9999 -9999 -9999 -9999 -9999 -9999 -9999 -9999 -9999 -9999 -9999 -9999 -9999 -9999 -9999 -9999 -9999 -9999 -9999 -9999 -9999 -9999 -9999 -9999 -9999 -9999 -9999 -9999 -9999 -9999 -9999 -9999 -9999 -9999 -9999 -9999 -9999 -9999 -9999 -9999 -9999 -9999 -9999 -9999 -9999 -9999 -9999 -9999 -9999 -9999 -9999 -9999 -9999 -9999 -9999 -9999 -9999 -9999 -9999 -9999 -9999 -9999 -9999 -9999 -9999 -9999 -9999 -9999 -9999 -9999 -9999 -9999 -9999 -9999 -9999 -9999 -9999 -9999 -9999 -9999 -9999 -9999 -9999 -9999 -9999 -9999 -9999 -9999 -9999 -9999 -9999 -9999 -9999 -9999 -9999 -9999 -9999 -9999 -9999 -9999 -9999 -9999 -9999 -9999 -9999 -9999 -9999 -9999 -9999 -9999 -9999 -9999 -9999 -9999 -9999 -9999 -9999 -9999 -9999 -9999 -9999 -9999 -9999 -9999 -9999 -9999 -9999 -9999 -9999 -9999 -9999 -9999 -9999 -9999 -9999 -9999 -9999 -9999 -9999 -9999 -9999 -9999 -9999 -9999 -9999 -9999 -9999 -9999 -9999 -9999 -9999 -9999 -9999 -9999 -9999 -9999 -9999 -9999 -9999 -9999 -9999 -9999 -9999 -9999 -9999 -9999 -9999 -9999 -9999 -9999 -9999 -9999 -9999 -9999 -9999 -9999 -9999 -9999
-9999 -9999 -9999 -9999 -9999 -9999 -9999 -9999 -9999 -9999 -9999 -9999 -9999 -9999 242 298 298 327 346 222 206 210 192 182 175 191 218 225 215 236 256 266 288 242 278 242 229 275 316 380 376 294 341 343 315 276 323 320 306 362 304 282 281 326 333 287 286 279 243 243 249 270 239 266 255 249 242 241 257 329 311 277 320 394 385 373 336 393 381 385 393 318 388 353 388 436 342 341 334 437 336 346 277 355 328 330 364 403 433 419 429 441 371 474 461 460 403 379 419 357 429 445 403 488 357 289 387 361 210 472 432 397 362 359 340 379 224 154 128 117 118 117 114 112 111 108 105 105 105 104 100 98 101 98 97 93 98 91 93 93 91 90 93 98 102 101 102 102 104 104 106 107 110 109 111 128 364 326 276 246 215 359 404 321 178 357 336 361 430 387 117 207 343 382 293 321 505 379 124 461 484 487 477 504 419 473 492 448 445 404 373 393 390 371 294 373 363 377 353 379 321 317 313 314 308 334 324 328 293 332 336 294 310 321 343 375 348 346 371 393 389 349 334 323 291 334 330 337 366 356 353 366 306 247 238 293 335 237 212 336 361 353 359 226 302 354 347 361 400 394 374 339 306 335 361 370 344 356 342 326 353 367 353 366 362 385 392 402 407 403 377 384 370 344 338 319 319 320 327 322 316 310 305 303 306 316 325 353 384 419 433 429 410 391 381 386 405 391 395 400 399 400 396 390 383 373 338 369 366 363 343 354 365 333 336 337 330 333 327 322 305 279 287 289 293 298 300 305 310 315 321 323 337 345 350 384 360 361 387 403 362 404 342 392 394 358 347 357 342 369 437 552 419 416 375 433 468 374 514 474 385 503 507 497 477 442 458 513 515 483 481 464 513 563 484 476 450 405 395 389 392 396 419 498 523 476 463 468 450 434 484 465 440 419 415 419 415 419 422 420 424 398 395 391 383 377 474 502 547 504 483 517 554 576 558 535 448 525 584 560 576 519 576 639 578 587 536 556 614 607 609 572 535 531 527 562 538 550 558 -9999 -9999 -9999 -9999 -9999 -9999 -9999 -9999 -9999 -9999 -9999 -9999 -9999 -9999 -9999 -9999 -9999 -9999 -9999 -9999 -9999 -9999 -9999 -9999 -9999 -9999 -9999 -9999 -9999 -9999 -9999 -9999 -9999 -9999 -9999 -9999 -9999 -9999 -9999 -9999 -9999 -9999 -9999 -9999 -9999 -9999 -9999 -9999 -9999 -9999 -9999 -9999 -9999 -9999 -9999 -9999 -9999 -9999 -9999 -9999 -9999 -9999 -9999 -9999 -9999 -9999 -9999 -9999 -9999 -9999 -9999 -9999 -9999 -9999 -9999 -9999 -9999 -9999 -9999 -9999 -9999 -9999 -9999 -9999 -9999 -9999 -9999 -9999 -9999 -9999 -9999 -9999 -9999 -9999 -9999 -9999 -9999 -9999 -9999 -9999 -9999 -9999 -9999 -9999 -9999 -9999 -9999 -9999 -9999 -9999 -9999 -9999 -9999 -9999 -9999 -9999 -9999 -9999 -9999 -9999 -9999 -9999 -9999 -9999 -9999 -9999 -9999 -9999 -9999 -9999 -9999 -9999 -9999 -9999 -9999 -9999 -9999 -9999 -9999 -9999 -9999 -9999 -9999 -9999 -9999 -9999 -9999 -9999 -9999 -9999 -9999 -9999 -9999 -9999 -9999 -9999 -9999 -9999 -9999 -9999 -9999 -9999 -9999 -9999 -9999 -9999 -9999 -9999 -9999 -9999 -9999 -9999 -9999 -9999 -9999 -9999 -9999 -9999 -9999 -9999 -9999 -9999 -9999 -9999
-9999 -9999 -9999 -9999 -9999 -9999 -9999 -9999 -9999 -9999 -9999 -9999 -9999 -9999 257 291 329 344 350 227 211 221 235 229 180 196 220 207 234 257 221 267 282 264 244 306 299 293 290 341 332 307 335 265 251 277 304 282 295 345 370 338 338 281 318 289 284 273 264 254 230 229 240 257 243 257 246 236 250 347 346 317 296 343 346 345 354 391 379 284 309 364 322 311 406 424 440 358 305 371 396 279 345 416 365 362 349 382 406 417 432 445 420 497 386 461 348 344 378 410 314 461 387 311 381 318 226 346 242 382 401 323 255 457 397 346 181 139 119 117 119 120 116 114 113 110 109 107 105 103 103 100 98 99 97 98 98 94 95 93 95 91 94 97 100 103 102 104 104 105 106 117 115 108 112 112 115 108 202 114 115 239 413 254 394 415 392 372 345 276 200 324 432 388 287 298 478 417 157 407 433 443 466 456 398 442 428 410 390 311 344 376 360 363 308 346 366 335 335 331 307 300 295 324 334 330 337 301 325 324 312 289 286 355 352 334 327 385 361 345 365 388 359 371 324 355 315 307 378 388 325 314 272 335 242 346 348 262 222 233 219 218 257 267 282 258 319 392 404 366 334 323 319 379 380 371 373 348 356 353 375 364 390 391 390 377 386 386 396 400 391 388 369 346 331 319 320 312 313 314 318 307 307 307 308 320 349 379 432 420 438 431 420 412 409 416 398 380 384 354 379 398 393 361 378 376 374 374 376 364 359 354 313 332 324 314 329 315 317 319 306 282 289 295 298 298 304 307 311 315 320 325 333 336 337 343 356 373 364 362 351 341 353 397 374 371 329 340 342 375 418 477 510 420 354 418 496 352 471 397 478 480 500 494 520 461 493 461 521 468 481 444 465 521 472 441 464 441 406 401 391 383 402 424 467 443 468 436 474 449 419 410 424 408 406 402 404 417 402 396 396 401 390 383 379 375 378 459 500 451 489 527 533 540 485 428 440 524 534 642 577 542 582 596 651 608 541 548 574 621 632 576 548 541 578 563 529 568 571 -9999 -9999 -9999 -9999 -9999 -9999 -9999 -9999 -9999 -9999 -9999 -9999 -9999 -9999 -9999 -9999 -9999 -9999 -9999 -9999 -9999 -9999 -9999 -9999 -9999 -9999 -9999 -9999 -9999 -9999 -9999 -9999 -9999 -9999 -9999 -9999 -9999 -9999 -9999 -9999 -9999 -9999 -9999 -9999 -9999 -9999 -9999 -9999 -9999 -9999 -9999 -9999 -9999 -9999 -9999 -9999 -9999 -9999 -9999 -9999 -9999 -9999 -9999 -9999 -9999 -9999 -9999 -9999 -9999 -9999 -9999 -9999 -9999 -9999 -9999 -9999 -9999 -9999 -9999 -9999 -9999 -9999 -9999 -9999 -9999 -9999 -9999 -9999 -9999 -9999 -9999 -9999 -9999 -9999 -9999 -9999 -9999 -9999 -9999 -9999 -9999 -9999 -9999 -9999 -9999 -9999 -9999 -9999 -9999 -9999 -9999 -9999 -9999 -9999 -9999 -9999 -9999 -9999 -9999 -9999 -9999 -9999 -9999 -9999 -9999 -9999 -9999 -9999 -9999 -9999 -9999 -9999 -9999 -9999 -9999 -9999 -9999 -9999 -9999 -9999 -9999 -9999 -9999 -9999 -9999 -9999 -9999 -9999 -9999 -9999 -9999 -9999 -9999 -9999 -9999 -9999 -9999 -9999 -9999 -9999 -9999 -9999 -9999 -9999 -9999 -9999 -9999 -9999 -9999 -9999 -9999 -9999 -9999 -9999 -9999 -9999 -9999 -9999 -9999 -9999 -9999 -9999 -9999 -9999
-9999 -9999 -9999 -9999 -9999 -9999 -9999 -9999 -9999 -9999 -9999 -9999 -9999 -9999 -9999 301 336 340 340 246 219 223 228 245 179 192 213 226 206 228 278 296 256 227 283 334 366 342 350 358 312 267 267 260 297 313 272 270 263 287 339 278 287 330 315 320 278 267 267 249 251 231 239 243 234 244 234 244 313 357 287 343 362 292 259 336 374 381 367 322 363 367 277 335 406 394 409 422 427 338 344 319 341 330 378 385 359 386 397 348 410 447 475 487 467 417 353 261 243 368 432 258 279 320 432 384 226 174 348 311 181 183 308 484 374 257 176 143 139 130 128 124 120 115 113 109 107 106 104 103 102 100 99 98 97 98 98 93 92 90 92 92 93 95 101 101 100 104 106 106 108 108 109 112 112 113 210 357 373 245 293 116 440 301 144 168 331 310 220 144 418 465 435 354 319 354 419 347 260 336 255 387 406 380 378 389 308 404 363 333 347 343 335 339 272 294 339 349 314 312 311 318 273 300 333 310 301 305 318 295 266 301 316 373 348 319 351 347 380 335 379 365 364 361 370 357 343 379 391 326 334 321 335 291 246 356 356 298 322 247 266 274 286 338 331 256 340 386 392 385 319 380 308 340 381 395 385 361 373 378 396 397 416 419 410 401 396 409 398 380 391 379 355 343 340 322 318 318 328 312 325 316 320 328 325 348 441 439 392 416 393 426 415 416 409 380 397 401 382 379 355 373 385 387 362 370 359 339 343 304 301 306 312 327 320 309 303 306 289 293 298 282 291 296 306 310 305 310 311 316 322 341 381 388 387 394 372 376 369 389 371 345 336 352 329 330 327 327 330 356 364 429 421 384 380 508 500 500 379 461 490 516 534 507 432 435 428 447 445 444 473 458 433 427 459 471 513 446 424 414 409 383 405 422 476 419 420 433 448 425 417 409 410 413 392 423 448 445 426 414 406 390 395 391 385 382 376 395 414 420 459 466 503 540 485 518 507 553 573 598 623 654 658 603 671 621 623 558 568 599 680 598 569 594 604 564 569 575 632 703 -9999 -9999 -9999 -9999 -9999 -9999 -9999 -9999 -9999 -9999 -9999 -9999 -9999 -9999 -9999 -9999 -9999 -9999 -9999 -9999 -9999 -9999 -9999 -9999 -9999 -9999 -9999 -9999 -9999 -9999 -9999 -9999 -9999 -9999 -9999 -9999 -9999 -9999 -9999 -9999 -9999 -9999 -9999 -9999 -9999 -9999 -9999 -9999 -9999 -9999 -9999 -9999 -9999 -9999 -9999 -9999 -9999 -9999 -9999 -9999 -9999 -9999 -9999 -9999 -9999 -9999 -9999 -9999 -9999 -9999 -9999 -9999 -9999 -9999 -9999 -9999 -9999 -9999 -9999 -9999 -9999 -9999 -9999 -9999 -9999 -9999 -9999 -9999 -9999 -9999 -9999 -9999 -9999 -9999 -9999 -9999 -9999 -9999 -9999 -9999 -9999 -9999 -9999 -9999 -9999 -9999 -9999 -9999 -9999 -9999 -9999 -9999 -9999 -9999 -9999 -9999 -9999 -9999 -9999 -9999 -9999 -9999 -9999 -9999 -9999 -9999 -9999 -9999 -9999 -9999 -9999 -9999 -9999 -9999 -9999 -9999 -9999 -9999 -9999 -9999 -9999 -9999 -9999 -9999 -9999 -9999 -9999 -9999 -9999 -9999 -9999 -9999 -9999 -9999 -9999 -9999 -9999 -9999 -9999 -9999 -9999 -9999 -9999 -9999 -9999 -9999 -9999 -9999 -9999 -9999 -9999 -9999 -9999 -9999 -9999 -9999 -9999 -9999 -9999 -9999 -9999 -9999 -9999
-9999 -9999 -9999 -9999 -9999 -9999 -9999 -9999 -9999 -9999 -9999 -9999 -9999 -9999 -9999 -9999 353 356 304 238 202 215 232 253 244 184 202 232 249 254 280 320 239 249 349 362 350 274 321 302 322 249 219 305 272 230 322 344 325 306 295 266 244 256 282 308 316 296 267 247 232 237 245 225 245 228 236 257 273 255 322 368 304 368 323 342 284 375 378 296 270 365 385 408 421 433 374 300 310 279 284 330 322 382 350 395 414 349 442 447 440 464 387 368 382 345 337 371 401 337 310 360 390 267 390 332 183 420 405 483 368 368 155 449 303 157 146 139 131 127 124 120 117 113 110 109 107 106 105 103 102 100 102 99 98 98 99 94 91 93 95 91 91 98 100 99 102 103 106 105 106 105 108 110 113 155 288 542 540 479 462 119 326 183 377 143 161 205 157 279 357 444 401 380 352 391 404 360 194 221 221 219 348 320 305 274 366 340 326 342 285 307 325 324 287 307 327 319 313 328 343 364 354 337 285 302 330 305 299 262 335 305 341 331 337 332 330 377 355 339 351 349 337 352 352 356 383 359 377 365 331 324 301 288 326 274 359 276 365 288 351 336 374 355 358 286 344 398 387 409 365 394 354 368 274 361 398 384 386 396 410 413 418 410 422 420 417 406 390 377 367 354 359 336 326 321 319 317 324 322 320 327 323 335 398 461 457 412 390 377 360 402 421 371 410 412 353 408 390 381 372 330 360 344 315 318 310 320 333 316 331 340 344 345 324 321 311 315 318 311 306 287 295 294 298 304 311 312 310 314 320 338 345 353 368 346 344 346 368 352 356 362 338 327 330 339 335 330 329 325 328 336 347 337 412 349 370 389 463 371 513 484 529 500 456 511 532 496 467 481 479 481 460 446 417 412 441 451 423 434 398 381 404 437 424 412 467 502 463 427 435 438 449 450 465 463 512 478 430 430 419 398 390 388 388 386 393 370 425 409 442 507 534 539 483 489 470 537 547 599 613 632 717 644 686 752 649 596 604 632 702 648 664 711 717 604 582 616 787 767 759 -9999 -9999 -9999 -9999 -9999 -9999 -9999 -9999 -9999 -9999 -9999 -9999 -9999 -9999 -9999 -9999 -9999 -9999 -9999 -9999 -9999 -9999 -9999 -9999 -9999 -9999 -9999 -9999 -9999 -9999 -9999 -9999 -9999 -9999 -9999 -9999 -9999 -9999 -9999 -9999 -9999 -9999 -9999 -9999 -9999 -9999 -9999 -9999 -9999 -9999 -9999 -9999 -9999 -9999 -9999 -9999 -9999 -9999 -9999 -9999 -9999 -9999 -9999 -9999 -9999 -9999 -9999 -9999 -9999 -9999 -9999 -9999 -9999 -9999 -9999 -9999 -9999 -9999 -9999 -9999 -9999 -9999 -9999 -9999 -9999 -9999 -9999 -9999 -9999 -9999 -9999 -9999 -9999 -9999 -9999 -9999 -9999 -9999 -9999 -9999 -9999 -9999 -9999 -9999 -9999 -9999 -9999 -9999 -9999 -9999 -9999 -9999 -9999 -9999 -9999 -9999 -9999 -9999 -9999 -9999 -9999 -9999 -9999 -9999 -9999 -9999 -9999 -9999 -9999 -9999 -9999 -9999 -9999 -9999 -9999 -9999 -9999 -9999 -9999 -9999 -9999 -9999 -9999 -9999 -9999 -9999 -9999 -9999 -9999 -9999 -9999 -9999 -9999 -9999 -9999 -9999 -9999 -9999 -9999 -9999 -9999 -9999 -9999 -9999 -9999 -9999 -9999 -9999 -9999 -9999 -9999 -9999 -9999 -9999 -9999 -9999 -9999 -9999 -9999 -9999 -9999 -9999
-9999 -9999 -9999 -9999 -9999 -9999 -9999 -9999 -9999 -9999 -9999 -9999 -9999 -9999 -9999 -9999 306 266 320 225 197 198 219 261 235 224 183 182 200 298 303 238 204 282 292 289 320 243 339 289 277 235 279 259 244 331 329 295 286 268 258 242 252 271 290 300 269 248 240 237 250 268 238 224 228 233 279 336 262 287 348 317 344 349 317 355 355 296 326 287 373 319 370 376 387 393 417 430 284 333 286 323 405 329 426 391 439 361 404 360 417 446 463 445 323 367 539 442 310 272 298 247 207 342 204 199 247 298 432 331 271 276 244 176 139 140 136 130 127 123 121 117 115 113 111 108 107 106 105 104 103 102 101 99 99 99 98 98 91 90 94 94 93 100 101 101 101 101 103 102 105 107 107 109 110 222 305 520 478 387 368 121 138 112 121 162 121 222 318 347 326 400 391 398 379 381 395 391 375 358 288 220 320 248 179 343 317 310 299 300 301 312 308 265 309 298 311 291 290 325 315 324 332 322 317 254 276 282 270 312 353 340 352 327 353 319 338 340 312 367 343 333 349 343 348 332 367 350 356 383 370 298 304 353 358 255 354 276 346 329 342 350 378 361 374 319 309 414 408 402 392 411 387 391 395 281 406 411 412 424 407 435 415 414 412 422 423 399 382 389 385 353 342 327 329 325 323 331 331 331 336 337 365 398 402 454 396 447 435 408 357 395 407 422 390 341 401 398 383 339 366 362 319 328 334 361 352 355 356 356 355 341 324 332 324 326 317 310 300 296 304 306 292 294 302 305 305 308 306 309 316 320 333 329 331 332 332 350 356 329 330 325 319 329 334 345 343 376 361 356 331 332 332 333 335 338 340 343 346 429 423 523 513 457 394 510 504 489 496 519 463 442 433 449 423 416 425 461 432 406 390 381 389 424 419 398 469 514 464 461 468 468 478 476 546 550 592 537 463 420 414 419 416 417 412 417 426 460 403 436 439 482 512 542 526 423 421 500 532 565 618 670 680 738 650 700 726 658 596 650 623 599 655 756 726 645 693 738 702 702 719 793 -9999 -9999 -9999 -9999 -9999 -9999 -9999 -9999 -9999 -9999 -9999 -9999 -9999 -9999 -9999 -9999 -9999 -9999 -9999 -9999 -9999 -9999 -9999 -9999 -9999 -9999 -9999 -9999 -9999 -9999 -9999 -9999 -9999 -9999 -9999 -9999 -9999 -9999 -9999 -9999 -9999 -9999 -9999 -9999 -9999 -9999 -9999 -9999 -9999 -9999 -9999 -9999 -9999 -9999 -9999 -9999 -9999 -9999 -9999 -9999 -9999 -9999 -9999 -9999 -9999 -9999 -9999 -9999 -9999 -9999 -9999 -9999 -9999 -9999 -9999 -9999 -9999 -9999 -9999 -9999 -9999 -9999 -9999 -9999 -9999 -9999 -9999 -9999 -9999 -9999 -9999 -9999 -9999 -9999 -9999 -9999 -9999 -9999 -9999 -9999 -9999 -9999 -9999 -9999 -9999 -9999 -9999 -9999 -9999 -9999 -9999 -9999 -9999 -9999 -9999 -9999 -9999 -9999 -9999 -9999 -9999 -9999 -9999 -9999 -9999 -9999 -9999 -9999 -9999 -9999 -9999 -9999 -9999 -9999 -9999 -9999 -9999 -9999 -9999 -9999 -9999 -9999 -9999 -9999 -9999 -9999 -9999 -9999 -9999 -9999 -9999 -9999 -9999 -9999 -9999 -9999 -9999 -9999 -9999 -9999 -9999 -9999 -9999 -9999 -9999 -9999 -9999 -9999 -9999 -9999 -9999 -9999 -9999 -9999 -9999 -9999 -9999 -9999 -9999 -9999 -9999
-9999 -9999 -9999 -9999 -9999 -9999 -9999 -9999 -9999 -9999 -9999 -9999 -9999 -9999 -9999 -9999 210 202 198 196 194 194 191 240 261 219 184 204 218 210 265 234 237 305 243 309 300 263 306 222 204 290 236 218 245 297 301 268 253 223 265 260 244 260 284 282 281 270 265 315 302 250 304 223 258 271 265 283 256 314 280 313 343 275 357 311 337 293 376 330 326 326 305 320 313 383 401 402 372 372 420 356 362 404 409 357 433 406 422 453 487 490 525 442 535 528 555 440 352 295 316 353 334 366 328 358 443 314 534 406 300 327 292 298 185 143 129 127 123 122 120 117 115 113 111 109 108 107 105 104 103 101 100 100 99 102 99 94 95 91 91 95 93 101 102 101 102 101 101 103 105 106 108 106 106 194 280 463 419 346 261 237 117 155 327 187 268 220 266 317 328 350 365 372 320 345 330 316 324 327 332 307 132 249 321 312 330 292 269 300 246 272 260 264 267 315 316 294 294 326 340 318 287 283 333 295 301 269 335 341 376 363 353 341 342 303 352 333 318 368 330 332 344 335 339 324 347 332 334 335 371 364 336 375 298 362 346 361 313 376 322 394 370 399 308 372 387 432 420 426 383 433 392 400 432 404 401 307 292 340 429 417 369 414 433 425 418 408 398 392 367 347 335 330 330 331 336 344 352 355 344 341 353 352 375 400 410 433 373 400 356 348 376 376 430 399 355 379 347 333 320 348 365 360 356 345 352 355 350 348 352 336 340 320 329 328 326 324 315 314 313 290 285 296 300 303 307 313 313 315 317 323 328 324 324 328 325 330 332 324 312 326 331 348 358 354 350 379 376 356 360 339 377 383 354 357 369 373 513 427 383 369 382 391 379 465 464 461 463 473 488 473 456 431 418 428 407 411 444 406 388 385 378 427 397 399 487 452 447 491 478 503 505 520 593 603 646 637 530 455 429 456 446 473 469 473 443 421 436 419 449 450 489 512 455 395 443 514 556 506 550 649 682 639 599 721 663 695 634 648 632 589 658 729 691 636 705 691 700 779 783 865 -9999 -9999 -9999 -9999 -9999 -9999 -9999 -9999 -9999 -9999 -9999 -9999 -9999 -9999 -9999 -9999 -9999 -9999 -9999 -9999 -9999 -9999 -9999 -9999 -9999 -9999 -9999 -9999 -9999 -9999 -9999 -9999 -9999 -9999 -9999 -9999 -9999 -9999 -9999 -9999 -9999 -9999 -9999 -9999 -9999 -9999 -9999 -9999 -9999 -9999 -9999 -9999 -9999 -9999 -9999 -9999 -9999 -9999 -9999 -9999 -9999 -9999 -9999 -9999 -9999 -9999 -9999 -9999 -9999 -9999 -9999 -9999 -9999 -9999 -9999 -9999 -9999 -9999 -9999 -9999 -9999 -9999 -9999 -9999 -9999 -9999 -9999 -9999 -9999 -9999 -9999 -9999 -9999 -9999 -9999 -9999 -9999 -9999 -9999 -9999 -9999 -9999 -9999 -9999 -9999 -9999 -9999 -9999 -9999 -9999 -9999 -9999 -9999 -9999 -9999 -9999 -9999 -9999 -9999 -9999 -9999 -9999 -9999 -9999 -9999 -9999 -9999 -9999 -9999 -9999 -9999 -9999 -9999 -9999 -9999 -9999 -9999 -9999 -9999 -9999 -9999 -9999 -9999 -9999 -9999 -9999 -9999 -9999 -9999 -9999 -9999 -9999 -9999 -9999 -9999 -9999 -9999 -9999 -9999 -9999 -9999 -9999 -9999 -9999 -9999 -9999 -9999 -9999 -9999 -9999 -9999 -9999 -9999 -9999 -9999 -9999 -9999 -9999 -9999 -9999 -9999
-9999 -9999 -9999 -9999 -9999 -9999 -9999 -9999 -9999 -9999 -9999 -9999 -9999 -9999 -9999 -9999 205 202 211 205 208 210 233 217 225 224 241 226 222 190 207 188 237 245 232 224 249 248 256 205 313 206 244 269 264 303 257 242 241 238 238 265 266 270 271 274 260 258 247 336 354 311 322 270 235 333 319 309 283 361 321 338 318 245 245 325 339 369 368 265 359 381 347 362 281 308 404 305 410 376 316 413 408 430 419 382 444 468 428 464 389 483 531 429 539 454 541 337 466 367 326 303 356 252 384 373 319 439 461 331 423 536 472 242 171 138 129 127 123 121 118 117 115 113 111 110 108 107 106 103 103 102 102 101 101 100 100 92 97 94 91 94 95 102 102 102 102 103 101 103 105 104 106 113 109 182 328 404 383 295 232 255 250 244 252 204 207 228 235 256 301 339 344 380 294 309 280 255 285 272 185 249 150 128 305 325 306 270 220 268 208 267 294 284 315 330 297 267 306 318 326 306 328 295 317 298 229 309 319 368 352 375 340 320 295 291 326 302 323 325 337 302 335 339 331 314 331 381 399 378 384 378 360 382 382 302 314 374 365 372 314 333 372 396 312 420 403 432 431 411 413 441 394 369 433 441 426 417 414 414 302 413 421 421 428 416 421 413 409 397 389 386 393 365 346 340 345 361 370 361 358 395 427 394 383 363 360 359 355 346 393 386 341 339 368 354 356 327 330 370 338 380 368 359 354 349 343 343 341 330 324 331 324 328 349 346 332 360 329 311 306 290 295 287 299 306 303 308 310 313 315 325 324 329 320 320 320 319 308 325 319 334 346 353 386 382 369 391 373 371 379 349 410 461 391 403 569 373 536 530 466 546 473 465 394 446 456 479 529 546 491 512 490 465 447 442 423 412 413 390 391 381 382 420 392 411 480 424 485 514 528 526 469 488 573 593 628 596 548 530 481 486 509 510 499 501 473 438 379 427 478 385 423 404 465 465 479 516 492 507 570 617 662 576 536 618 632 621 616 583 589 607 677 678 701 680 675 788 709 761 784 829 -9999 -9999 -9999 -9999 -9999 -9999 -9999 -9999 -9999 -9999 -9999 -9999 -9999 -9999 -9999 -9999 -9999 -9999 -9999 -9999 -9999 -9999 -9999 -9999 -9999 -9999 -9999 -9999 -9999 -9999 -9999 -9999 -9999 -9999 -9999 -9999 -9999 -9999 -9999 -9999 -9999 -9999 -9999 -9999 -9999 -9999 -9999 -9999 -9999 -9999 -9999 -9999 -9999 -9999 -9999 -9999 -9999 -9999 -9999 -9999 -9999 -9999 -9999 -9999 -9999 -9999 -9999 -9999 -9999 -9999 -9999 -9999 -9999 -9999 -9999 -9999 -9999 -9999 -9999 -9999 -9999 -9999 -9999 -9999 -9999 -9999 -9999 -9999 -9999 -9999 -9999 -9999 -9999 -9999 -9999 -9999 -9999 -9999 -9999 -9999 -9999 -9999 -9999 -9999 -9999 -9999 -9999 -9999 -9999 -9999 -9999 -9999 -9999 -9999 -9999 -9999 -9999 -9999 -9999 -9999 -9999 -9999 -9999 -9999 -9999 -9999 -9999 -9999 -9999 -9999 -9999 -9999 -9999 -9999 -9999 -9999 -9999 -9999 -9999 -9999 -9999 -9999 -9999 -9999 -9999 -9999 -9999 -9999 -9999 -9999 -9999 -9999 -9999 -9999 -9999 -9999 -9999 -9999 -9999 -9999 -9999 -9999 -9999 -9999 -9999 -9999 -9999 -9999 -9999 -9999 -9999 -9999 -9999 -9999 -9999 -9999 -9999 -9999 -9999 -9999 -9999
-9999 -9999 -9999 -9999 -9999 -9999 -9999 -9999 -9999 -9999 -9999 -9999 -9999 -9999 -9999 -9999 -9999 -9999 225 236 237 238 235 234 214 233 251 274 255 185 187 191 192 186 206 219 233 242 239 219 261 279 310 279 243 346 222 242 278 291 314 269 260 276 271 322 292 272 235 255 374 282 315 221 260 262 330 381 363 336 333 305 237 339 357 315 303 337 328 365 254 341 353 259 325 382 408 388 404 256 390 350 414 418 345 383 405 386 429 402 491 503 531 584 536 539 454 438 312 355 420 287 435 315 407 436 434 445 513 451 507 486 438 206 168 140 132 127 123 120 118 117 114 113 112 109 108 107 105 104 103 103 102 103 99 101 94 94 95 97 95 94 94 101 102 103 102 102 104 103 102 103 104 105 109 180 394 355 319 288 234 218 190 195 187 181 208 205 217 273 258 317 345 342 277 260 234 230 252 246 225 287 141 219 293 322 243 269 189 217 201 186 261 275 324 315 306 300 314 323 324 302 291 273 301 293 236 325 354 335 367 366 337 301 294 341 333 298 336 309 277 340 326 337 341 293 329 372 341 360 361 364 415 413 348 352 357 407 376 402 375 389 388 400 284 408 412 440 447 427 440 450 423 433 381 427 448 446 450 426 353 420 425 438 424 411 410 410 408 436 412 405 487 423 375 353 362 374 406 475 438 400 397 406 397 394 388 370 363 403 432 450 412 344 334 348 382 337 395 395 381 371 378 365 364 352 368 375 382 356 361 371 369 364 355 338 328 325 342 323 303 287 296 298 291 296 301 308 316 318 322 337 315 307 306 310 315 323 327 330 336 340 355 400 429 437 406 391 375 388 379 358 408 508 497 545 571 402 374 405 524 554 503 476 483 492 515 495 442 529 515 490 452 465 432 435 430 410 391 395 406 394 391 381 381 389 406 426 547 562 486 475 452 529 523 541 632 630 556 505 506 526 557 532 504 467 465 415 371 402 381 422 497 514 542 518 468 450 524 490 522 547 599 544 526 568 609 566 599 567 565 599 712 698 640 669 693 830 741 677 744 683 602 -9999 -9999 -9999 -9999 -9999 -9999 -9999 -9999 -9999 -9999 -9999 -9999 -9999 -9999 -9999 -9999 -9999 -9999 -9999 -9999 -9999 -9999 -9999 -9999 -9999 -9999 -9999 -9999 -9999 -9999 -9999 -9999 -9999 -9999 -9999 -9999 -9999 -9999 -9999 -9999 -9999 -9999 -9999 -9999 -9999 -9999 -9999 -9999 -9999 -9999 -9999 -9999 -9999 -9999 -9999 -9999 -9999 -9999 -9999 -9999 -9999 -9999 -9999 -9999 -9999 -9999 -9999 -9999 -9999 -9999 -9999 -9999 -9999 -9999 -9999 -9999 -9999 -9999 -9999 -9999 -9999 -9999 -9999 -9999 -9999 -9999 -9999 -9999 -9999 -9999 -9999 -9999 -9999 -9999 -9999 -9999 -9999 -9999 -9999 -9999 -9999 -9999 -9999 -9999 -9999 -9999 -9999 -9999 -9999 -9999 -9999 -9999 -9999 -9999 -9999 -9999 -9999 -9999 -9999 -9999 -9999 -9999 -9999 -9999 -9999 -9999 -9999 -9999 -9999 -9999 -9999 -9999 -9999 -9999 -9999 -9999 -9999 -9999 -9999 -9999 -9999 -9999 -9999 -9999 -9999 -9999 -9999 -9999 -9999 -9999 -9999 -9999 -9999 -9999 -9999 -9999 -9999 -9999 -9999 -9999 -9999 -9999 -9999 -9999 -9999 -9999 -9999 -9999 -9999 -9999 -9999 -9999 -9999 -9999 -9999 -9999 -9999 -9999 -9999 -9999
-9999 -9999 -9999 -9999 -9999 -9999 -9999 -9999 -9999 -9999 -9999 -9999 -9999 -9999 -9999 -9999 -9999 -9999 243 255 252 267 245 236 228 220 243 248 190 205 300 242 215 222 224 184 199 204 220 194 224 231 245 304 236 209 303 296 332 275 275 366 279 271 262 363 324 332 286 248 319 232 222 221 228 306 321 300 307 277 319 258 284 290 261 289 335 271 361 355 314 347 351 301 300 395 357 367 285 298 303 398 370 378 382 442 356 363 467 453 383 456 523 575 486 495 414 336 492 320 407 398 454 465 394 519 377 538 483 600 537 413 332 208 165 146 136 129 123 121 118 117 113 113 111 109 108 107 106 105 104 104 105 104 102 101 94 99 92 95 94 95 95 101 103 102 102 102 102 102 106 110 104 108 109 158 302 312 304 254 159 123 137 149 146 232 194 208 202 246 298 316 301 267 240 220 220 236 234 229 264 146 221 165 255 288 222 253 197 179 215 271 313 314 322 313 319 295 313 308 333 316 280 305 289 252 309 333 352 325 361 340 337 293 313 336 333 286 294 313 357 358 338 354 332 310 341 330 326 326 350 395 395 422 359 381 357 436 404 407 347 389 409 413 336 440 422 439 443 436 452 449 439 435 373 446 447 452 442 448 417 379 433 419 429 416 400 412 411 441 505 493 455 498 421 395 429 428 457 467 463 435 431 412 423 406 463 395 370 467 463 411 450 382 373 414 395 392 367 366 389 393 379 375 362 398 404 395 384 368 376 374 375 380 382 369 352 334 337 352 349 303 297 298 300 301 303 293 318 316 312 299 313 317 321 324 325 325 326 334 341 335 352 371 410 519 513 443 413 471 411 382 377 476 426 493 525 408 497 404 519 468 517 514 513 551 561 521 461 524 498 496 504 459 427 421 426 426 421 477 434 416 399 376 377 384 415 409 466 555 497 473 497 508 493 494 620 597 594 538 451 512 526 550 549 488 418 412 371 380 458 445 479 506 496 524 540 525 482 615 590 583 552 483 543 567 536 553 605 563 588 623 691 681 630 683 695 703 636 642 689 596 -9999 -9999 -9999 -9999 -9999 -9999 -9999 -9999 -9999 -9999 -9999 -9999 -9999 -9999 -9999 -9999 -9999 -9999 -9999 -9999 -9999 -9999 -9999 -9999 -9999 -9999 -9999 -9999 -9999 -9999 -9999 -9999 -9999 -9999 -9999 -9999 -9999 -9999 -9999 -9999 -9999 -9999 -9999 -9999 -9999 -9999 -9999 -9999 -9999 -9999 -9999 -9999 -9999 -9999 -9999 -9999 -9999 -9999 -9999 -9999 -9999 -9999 -9999 -9999 -9999 -9999 -9999 -9999 -9999 -9999 -9999 -9999 -9999 -9999 -9999 -9999 -9999 -9999 -9999 -9999 -9999 -9999 -9999 -9999 -9999 -9999 -9999 -9999 -9999 -9999 -9999 -9999 -9999 -9999 -9999 -9999 -9999 -9999 -9999 -9999 -9999 -9999 -9999 -9999 -9999 -9999 -9999 -9999 -9999 -9999 -9999 -9999 -9999 -9999 -9999 -9999 -9999 -9999 -9999 -9999 -9999 -9999 -9999 -9999 -9999 -9999 -9999 -9999 -9999 -9999 -9999 -9999 -9999 -9999 -9999 -9999 -9999 -9999 -9999 -9999 -9999 -9999 -9999 -9999 -9999 -9999 -9999 -9999 -9999 -9999 -9999 -9999 -9999 -9999 -9999 -9999 -9999 -9999 -9999 -9999 -9999 -9999 -9999 -9999 -9999 -9999 -9999 -9999 -9999 -9999 -9999 -9999 -9999 -9999 -9999 -9999 -9999 -9999 -9999 -9999 -9999
-9999 -9999 -9999 -9999 -9999 -9999 -9999 -9999 -9999 -9999 -9999 -9999 -9999 -9999 -9999 -9999 -9999 -9999 207 252 263 255 229 221 218 250 235 230 229 276 297 291 232 229 234 273 247 184 192 192 192 200 254 285 338 332 285 306 386 370 294 316 244 276 269 310 259 238 290 226 217 217 246 229 281 233 265 310 288 246 232 290 346 357 289 276 336 311 323 338 334 267 285 347 373 383 363 289 262 309 340 393 405 328 452 366 324 451 408 488 427 543 535 509 399 504 412 501 477 383 452 393 457 459 393 494 553 536 446 403 514 387 236 192 165 146 137 137 135 128 126 113 113 112 111 110 108 108 106 106 105 105 106 105 103 102 95 94 95 94 95 96 96 102 102 103 102 102 103 107 103 108 105 106 104 186 319 269 281 234 139 131 151 210 222 254 211 182 224 208 272 292 268 242 203 234 212 233 242 294 267 176 164 149 143 284 209 248 161 262 318 322 300 293 306 289 286 318 289 335 311 338 289 275 208 240 321 341 323 311 315 344 348 302 345 330 313 269 325 356 344 325 335 303 229 230 253 330 347 373 386 395 398 399 406 410 418 409 413 374 389 418 435 418 302 454 465 464 464 460 460 451 451 437 422 422 442 455 447 431 372 314 432 424 406 408 403 407 418 498 490 492 465 448 466 470 469 471 451 450 450 500 498 475 487 481 403 415 422 465 412 420 419 440 437 424 402 398 407 403 396 387 381 380 376 380 380 379 361 369 368 359 350 369 372 346 348 348 312 310 313 291 298 300 304 301 304 305 308 302 308 311 316 347 373 374 372 361 356 353 351 349 351 364 383 431 417 401 428 553 458 425 391 571 540 535 586 536 477 439 520 493 474 483 472 493 556 520 516 494 562 563 530 470 458 451 449 427 415 426 426 441 403 383 376 389 434 405 437 502 462 449 457 483 499 623 564 525 558 503 458 494 514 566 519 476 429 382 372 379 430 452 501 526 543 545 564 555 565 562 588 538 503 463 479 482 521 568 548 581 624 597 576 646 667 698 692 645 591 621 697 627 555 -9999 -9999 -9999 -9999 -9999 -9999 -9999 -9999 -9999 -9999 -9999 -9999 -9999 -9999 -9999 -9999 -9999 -9999 -9999 -9999 -9999 -9999 -9999 -9999 -9999 -9999 -9999 -9999 -9999 -9999 -9999 -9999 -9999 -9999 -9999 -9999 -9999 -9999 -9999 -9999 -9999 -9999 -9999 -9999 -9999 -9999 -9999 -9999 -9999 -9999 -9999 -9999 -9999 -9999 -9999 -9999 -9999 -9999 -9999 -9999 -9999 -9999 -9999 -9999 -9999 -9999 -9999 -9999 -9999 -9999 -9999 -9999 -9999 -9999 -9999 -9999 -9999 -9999 -9999 -9999 -9999 -9999 -9999 -9999 -9999 -9999 -9999 -9999 -9999 -9999 -9999 -9999 -9999 -9999 -9999 -9999 -9999 -9999 -9999 -9999 -9999 -9999 -9999 -9999 -9999 -9999 -9999 -9999 -9999 -9999 -9999 -9999 -9999 -9999 -9999 -9999 -9999 -9999 -9999 -9999 -9999 -9999 -9999 -9999 -9999 -9999 -9999 -9999 -9999 -9999 -9999 -9999 -9999 -9999 -9999 -9999 -9999 -9999 -9999 -9999 -9999 -9999 -9999 -9999 -9999 -9999 -9999 -9999 -9999 -9999 -9999 -9999 -9999 -9999 -9999 -9999 -9999 -9999 -9999 -9999 -9999 -9999 -9999 -9999 -9999 -9999 -9999 -9999 -9999 -9999 -9999 -9999 -9999 -9999 -9999 -9999 -9999 -9999 -9999 -9999
